1.91902,-0.541542,3.493,4.02206
1.93036,-0.541542,3.493,4.02748
1.92224,-0.536116,3.458,3.99252
1.93346,-0.536116,3.458,3.99793
1.94469,-0.536116,3.458,4.00337
1.93611,-0.530689,3.423,3.96826
1.94722,-0.530689,3.423,3.97369
1.95833,-0.530689,3.423,3.97915
1.94988,-0.525418,3.389,3.94505
1.96088,-0.525418,3.389,3.9505
1.97188,-0.525418,3.389,3.95597
1.98288,-0.525418,3.389,3.96147
1.99388,-0.525418,3.389,3.96698
1.98536,-0.520302,3.356,3.93384
1.97722,-0.515341,3.324,3.90179
1.96887,-0.51038,3.292,3.86965
1.97955,-0.51038,3.292,3.8751
1.97089,-0.505418,3.26,3.84285
1.96324,-0.500767,3.23,3.81287
1.97372,-0.500767,3.23,3.81828
1.96516,-0.495961,3.199,3.78701
1.93973,-0.486969,3.141,3.72365
1.94992,-0.486969,3.141,3.72897
1.9077,-0.473946,3.057,3.63444
1.91762,-0.473946,3.057,3.63966
nan,nan,nan,NaN
nan,nan,nan,NaN
1.83272,-0.446039,2.877,3.4402
1.84206,-0.446039,2.877,3.44518
1.82051,-0.438598,2.829,3.39262
1.79994,-0.431466,2.783,3.34231
1.80897,-0.431466,2.783,3.34718
1.80364,-0.428055,2.761,3.32558
1.78371,-0.421234,2.717,3.27737
1.79253,-0.421234,2.717,3.28218
1.78743,-0.417978,2.696,3.2616
1.78218,-0.414722,2.675,3.24096
1.77681,-0.411466,2.654,3.22026
1.78542,-0.411466,2.654,3.22502
1.77984,-0.408211,2.633,3.20424
1.7748,-0.40511,2.613,3.18462
-2.26157,-0.49484,3.26,3.99839
-2.25099,-0.49484,3.26,3.99242
-2.24041,-0.49484,3.26,3.98646
-2.25171,-0.499698,3.292,4.0196
-2.26281,-0.504555,3.324,4.05264
-2.25202,-0.504555,3.324,4.04662
-2.24123,-0.504555,3.324,4.04063
-2.23045,-0.504555,3.324,4.03465
-2.21966,-0.504555,3.324,4.0287
-2.20887,-0.504555,3.324,4.02277
-2.21924,-0.509412,3.356,4.05552
-2.20835,-0.509412,3.356,4.04957
-2.19745,-0.509412,3.356,4.04364
-2.18656,-0.509412,3.356,4.03773
-2.17567,-0.509412,3.356,4.03184
-2.16478,-0.509412,3.356,4.02598
-2.15388,-0.509412,3.356,4.02013
-2.14299,-0.509412,3.356,4.01431
-2.1321,-0.509412,3.356,4.0085
-2.1212,-0.509412,3.356,4.00272
-2.11031,-0.509412,3.356,3.99696
-2.09942,-0.509412,3.356,3.99122
-2.06861,-0.504555,3.324,3.94749
-2.05782,-0.504555,3.324,3.94185
-2.02733,-0.499698,3.292,3.89834
-2.01664,-0.499698,3.292,3.89279
-1.98646,-0.49484,3.26,3.84948
-1.97588,-0.49484,3.26,3.84403
-1.9653,-0.49484,3.26,3.8386
-1.93673,-0.490286,3.23,3.79792
-1.92624,-0.490286,3.23,3.79258
nan,nan,nan,NaN
nan,nan,nan,NaN
nan,nan,nan,NaN
nan,nan,nan,NaN
nan,nan,nan,NaN
nan,nan,nan,NaN
nan,nan,nan,NaN
nan,nan,nan,NaN
nan,nan,nan,NaN
nan,nan,nan,NaN
nan,nan,nan,NaN
nan,nan,nan,NaN
nan,nan,nan,NaN
nan,nan,nan,NaN
nan,nan,nan,NaN
nan,nan,nan,NaN
nan,nan,nan,NaN
nan,nan,nan,NaN
nan,nan,nan,NaN
nan,nan,nan,NaN
nan,nan,nan,NaN
nan,nan,nan,NaN
nan,nan,nan,NaN
nan,nan,nan,NaN
nan,nan,nan,NaN
nan,nan,nan,NaN
nan,nan,nan,NaN
nan,nan,nan,NaN
nan,nan,nan,NaN
nan,nan,nan,NaN
-1.14665,-0.351094,2.313,2.60539
-1.13914,-0.351094,2.313,2.60209
-1.13164,-0.351094,2.313,2.59881
-1.12413,-0.351094,2.313,2.59555
-1.11662,-0.351094,2.313,2.59231
-1.10911,-0.351094,2.313,2.58909
-1.10161,-0.351094,2.313,2.58588
-1.0941,-0.351094,2.313,2.58269
-1.09411,-0.353522,2.329,2.59736
-1.08655,-0.353522,2.329,2.59419
-1.07899,-0.353522,2.329,2.59103
-1.07143,-0.353522,2.329,2.58789
-1.06387,-0.353522,2.329,2.58477
-1.05631,-0.353522,2.329,2.58167
-1.04875,-0.353522,2.329,2.57858
-1.04119,-0.353522,2.329,2.57552
-1.03363,-0.353522,2.329,2.57247
-1.03312,-0.355951,2.345,2.5871
-1.02551,-0.355951,2.345,2.58407
-1.0179,-0.355951,2.345,2.58106
-1.01029,-0.355951,2.345,2.57806
-1.00268,-0.355951,2.345,2.57509
-0.995066,-0.355951,2.345,2.57214
-0.987455,-0.355951,2.345,2.5692
-0.979844,-0.355951,2.345,2.56629
-0.972232,-0.355951,2.345,2.56339
-0.964621,-0.355951,2.345,2.56051
-0.95701,-0.355951,2.345,2.55765
-0.949399,-0.355951,2.345,2.55482
-0.941787,-0.355951,2.345,2.552
-0.934176,-0.355951,2.345,2.5492
-0.926565,-0.355951,2.345,2.54642
-0.918953,-0.355951,2.345,2.54366
-0.911342,-0.355951,2.345,2.54092
-0.903731,-0.355951,2.345,2.5382
-0.89612,-0.355951,2.345,2.5355
-0.888508,-0.355951,2.345,2.53282
-0.880897,-0.355951,2.345,2.53016
-0.873286,-0.355951,2.345,2.52752
-0.865674,-0.355951,2.345,2.5249
-0.863918,-0.35838,2.361,2.53951
-0.856255,-0.35838,2.361,2.53691
-0.848591,-0.35838,2.361,2.53434
-0.840928,-0.35838,2.361,2.53178
-0.833265,-0.35838,2.361,2.52925
-0.825602,-0.35838,2.361,2.52673
-0.817938,-0.35838,2.361,2.52424
-0.815766,-0.360808,2.377,2.53886
-0.808051,-0.360808,2.377,2.53639
-0.800336,-0.360808,2.377,2.53394
-0.79829,-0.363389,2.394,2.54962
-0.790519,-0.363389,2.394,2.5472
-0.782749,-0.363389,2.394,2.5448
-0.774979,-0.363389,2.394,2.54242
-0.767208,-0.363389,2.394,2.54006
-0.759438,-0.363389,2.394,2.53772
-0.751668,-0.363389,2.394,2.53541
-0.74918,-0.365969,2.411,2.5511
-0.741354,-0.365969,2.411,2.54882
-0.733529,-0.365969,2.411,2.54655
-0.725703,-0.365969,2.411,2.54431
-0.717878,-0.365969,2.411,2.54209
-0.715059,-0.36855,2.428,2.5578
-0.707178,-0.36855,2.428,2.5556
-0.699297,-0.36855,2.428,2.55344
-0.691417,-0.36855,2.428,2.55129
-0.683536,-0.36855,2.428,2.54916
-0.680386,-0.37113,2.445,2.5649
-0.67245,-0.37113,2.445,2.5628
-0.664514,-0.37113,2.445,2.56073
-0.656578,-0.37113,2.445,2.55868
-0.653418,-0.373862,2.463,2.57548
-0.645424,-0.373862,2.463,2.57346
-0.637429,-0.373862,2.463,2.57147
-0.634035,-0.376595,2.481,2.58828
-0.625982,-0.376595,2.481,2.58632
-0.61793,-0.376595,2.481,2.58438
-0.609877,-0.376595,2.481,2.58247
-0.606191,-0.379327,2.499,2.5993
-0.598079,-0.379327,2.499,2.59742
-0.589968,-0.379327,2.499,2.59556
-0.581857,-0.379327,2.499,2.59373
-0.573746,-0.379327,2.499,2.59192
-0.565635,-0.379327,2.499,2.59014
-0.557524,-0.379327,2.499,2.58838
-0.549413,-0.379327,2.499,2.58665
-0.541301,-0.379327,2.499,2.58494
-0.53319,-0.379327,2.499,2.58325
-0.525079,-0.379327,2.499,2.58159
-0.513244,-0.376595,2.481,2.56137
-0.505192,-0.376595,2.481,2.55977
-0.497139,-0.376595,2.481,2.55819
-0.489086,-0.376595,2.481,2.55664
-0.481034,-0.376595,2.481,2.55511
-0.472981,-0.376595,2.481,2.5536
-0.464928,-0.376595,2.481,2.55213
-0.456875,-0.376595,2.481,2.55067
-0.448823,-0.376595,2.481,2.54924
-0.44077,-0.376595,2.481,2.54784
-0.432717,-0.376595,2.481,2.54645
-0.424665,-0.376595,2.481,2.5451
-0.416612,-0.376595,2.481,2.54377
-0.408559,-0.376595,2.481,2.54246
-0.400506,-0.376595,2.481,2.54118
-0.392454,-0.376595,2.481,2.53992
-0.384401,-0.376595,2.481,2.53869
-0.376348,-0.376595,2.481,2.53748
-0.370968,-0.379327,2.499,2.5547
-0.362857,-0.379327,2.499,2.55354
-0.354745,-0.379327,2.499,2.5524
-0.346634,-0.379327,2.499,2.55128
-0.338523,-0.379327,2.499,2.55019
-0.330412,-0.379327,2.499,2.54913
-0.322301,-0.379327,2.499,2.54809
-0.31419,-0.379327,2.499,2.54708
-0.306079,-0.379327,2.499,2.54609
-0.297967,-0.379327,2.499,2.54513
-0.289856,-0.379327,2.499,2.54419
-0.281745,-0.379327,2.499,2.54328
-0.273634,-0.379327,2.499,2.54239
-0.265523,-0.379327,2.499,2.54153
-0.257412,-0.379327,2.499,2.5407
-0.249301,-0.379327,2.499,2.53989
-0.24119,-0.379327,2.499,2.53911
-0.233078,-0.379327,2.499,2.53835
-0.224967,-0.379327,2.499,2.53762
-0.216856,-0.379327,2.499,2.53691
-0.208745,-0.379327,2.499,2.53623
-0.200634,-0.379327,2.499,2.53558
-0.192523,-0.379327,2.499,2.53495
-0.184412,-0.379327,2.499,2.53434
-0.1763,-0.379327,2.499,2.53377
-0.168189,-0.379327,2.499,2.53321
-0.160078,-0.379327,2.499,2.53269
-0.151967,-0.379327,2.499,2.53219
-0.143856,-0.379327,2.499,2.53172
-0.135745,-0.379327,2.499,2.53127
-0.127634,-0.379327,2.499,2.53085
-0.119523,-0.379327,2.499,2.53045
-0.111411,-0.379327,2.499,2.53008
-0.1033,-0.379327,2.499,2.52974
-0.0951891,-0.379327,2.499,2.52942
-0.0864508,-0.376595,2.481,2.51091
-0.078398,-0.376595,2.481,2.51064
-0.0703453,-0.376595,2.481,2.51041
-0.0622926,-0.376595,2.481,2.51019
-0.0546334,-0.379327,2.499,2.52822
-0.0465223,-0.379327,2.499,2.52805
-0.0384112,-0.379327,2.499,2.52792
-0.0303,-0.379327,2.499,2.52781
-0.0221889,-0.379327,2.499,2.52772
-0.0141792,-0.382059,2.517,2.54587
-0.00600962,-0.382059,2.517,2.54584
0.00215994,-0.382059,2.517,2.54583
0.0103295,-0.382059,2.517,2.54585
0.0184991,-0.382059,2.517,2.5459
0.0270712,-0.387827,2.555,2.58441
0.0353641,-0.387827,2.555,2.58451
0.043657,-0.387827,2.555,2.58464
0.0519499,-0.387827,2.555,2.58479
0.0606908,-0.390711,2.574,2.60419
0.0690454,-0.390711,2.574,2.6044
0.0773999,-0.390711,2.574,2.60464
0.0857545,-0.390711,2.574,2.6049
0.0948037,-0.393595,2.593,2.62442
0.10322,-0.393595,2.593,2.62473
0.111636,-0.393595,2.593,2.62508
0.120052,-0.393595,2.593,2.62545
0.128469,-0.393595,2.593,2.62585
0.136885,-0.393595,2.593,2.62627
0.145301,-0.393595,2.593,2.62672
0.153717,-0.393595,2.593,2.6272
0.162134,-0.393595,2.593,2.62771
0.17055,-0.393595,2.593,2.62824
0.178966,-0.393595,2.593,2.6288
0.187382,-0.393595,2.593,2.62939
0.195799,-0.393595,2.593,2.63
0.204215,-0.393595,2.593,2.63064
0.212631,-0.393595,2.593,2.63131
0.221047,-0.393595,2.593,2.632
0.229463,-0.393595,2.593,2.63272
0.23788,-0.393595,2.593,2.63347
0.246296,-0.393595,2.593,2.63424
0.254712,-0.393595,2.593,2.63504
0.263128,-0.393595,2.593,2.63587
0.271545,-0.393595,2.593,2.63672
0.279961,-0.393595,2.593,2.6376
0.288377,-0.393595,2.593,2.63851
0.296793,-0.393595,2.593,2.63944
0.30521,-0.393595,2.593,2.6404
0.313626,-0.393595,2.593,2.64139
0.322042,-0.393595,2.593,2.6424
0.330458,-0.393595,2.593,2.64344
0.338875,-0.393595,2.593,2.6445
0.344746,-0.390711,2.574,2.62621
0.353101,-0.390711,2.574,2.62732
0.361455,-0.390711,2.574,2.62846
0.36981,-0.390711,2.574,2.62962
0.375373,-0.387827,2.555,2.61139
0.383666,-0.387827,2.555,2.61259
0.391959,-0.387827,2.555,2.61382
0.400252,-0.387827,2.555,2.61508
0.408544,-0.387827,2.555,2.61636
0.416837,-0.387827,2.555,2.61767
0.421969,-0.384943,2.536,2.59953
0.4302,-0.384943,2.536,2.60087
0.438431,-0.384943,2.536,2.60225
0.446662,-0.384943,2.536,2.60365
0.454894,-0.384943,2.536,2.60507
0.463125,-0.384943,2.536,2.60652
0.471356,-0.384943,2.536,2.608
0.479587,-0.384943,2.536,2.6095
0.487819,-0.384943,2.536,2.61102
0.49605,-0.384943,2.536,2.61257
0.504281,-0.384943,2.536,2.61415
0.512512,-0.384943,2.536,2.61575
0.524645,-0.387827,2.555,2.63698
0.532938,-0.387827,2.555,2.63865
0.537206,-0.384943,2.536,2.6207
0.545437,-0.384943,2.536,2.6224
0.553668,-0.384943,2.536,2.62412
0.566109,-0.387827,2.555,2.64555
0.574402,-0.387827,2.555,2.64733
0.582695,-0.387827,2.555,2.64914
0.590988,-0.387827,2.555,2.65098
0.599281,-0.387827,2.555,2.65284
0.607574,-0.387827,2.555,2.65473
0.615867,-0.387827,2.555,2.65664
0.62416,-0.387827,2.555,2.65857
0.632453,-0.387827,2.555,2.66053
0.640746,-0.387827,2.555,2.66252
0.649038,-0.387827,2.555,2.66452
0.657331,-0.387827,2.555,2.66656
0.665624,-0.387827,2.555,2.66861
0.673917,-0.387827,2.555,2.67069
0.68221,-0.387827,2.555,2.6728
0.690503,-0.387827,2.555,2.67493
0.698796,-0.387827,2.555,2.67708
0.70183,-0.384943,2.536,2.65933
0.710062,-0.384943,2.536,2.66152
0.718293,-0.384943,2.536,2.66372
0.726524,-0.384943,2.536,2.66595
0.734755,-0.384943,2.536,2.66821
0.742987,-0.384943,2.536,2.67049
0.74559,-0.382059,2.517,2.65277
0.753759,-0.382059,2.517,2.65507
0.761929,-0.382059,2.517,2.6574
0.775912,-0.384943,2.536,2.67984
0.784143,-0.384943,2.536,2.68223
0.792374,-0.384943,2.536,2.68465
0.794607,-0.382059,2.517,2.66696
0.802777,-0.382059,2.517,2.6694
0.810946,-0.382059,2.517,2.67187
0.819116,-0.382059,2.517,2.67436
0.827285,-0.382059,2.517,2.67688
0.835455,-0.382059,2.517,2.67941
0.843624,-0.382059,2.517,2.68197
0.845702,-0.379327,2.499,2.66535
0.853814,-0.379327,2.499,2.66794
0.861925,-0.379327,2.499,2.67054
0.870036,-0.379327,2.499,2.67317
0.871822,-0.376595,2.481,2.65655
0.879874,-0.376595,2.481,2.6592
0.887927,-0.376595,2.481,2.66188
0.889479,-0.373862,2.463,2.64524
0.897474,-0.373862,2.463,2.64794
0.905468,-0.373862,2.463,2.65066
0.906787,-0.37113,2.445,2.63401
0.914722,-0.37113,2.445,2.63676
0.922658,-0.37113,2.445,2.63952
0.930594,-0.37113,2.445,2.6423
0.93853,-0.37113,2.445,2.64511
0.946466,-0.37113,2.445,2.64794
0.954402,-0.37113,2.445,2.65078
0.955646,-0.36855,2.428,2.6352
0.963527,-0.36855,2.428,2.63807
0.971408,-0.36855,2.428,2.64096
0.979289,-0.36855,2.428,2.64386
0.987169,-0.36855,2.428,2.64679
0.99505,-0.36855,2.428,2.64974
1.00293,-0.36855,2.428,2.65271
1.01789,-0.37113,2.445,2.6743
1.02582,-0.37113,2.445,2.67733
nan,nan,nan,NaN
nan,nan,nan,NaN
nan,nan,nan,NaN
1.13889,-0.399667,2.633,2.89646
1.14743,-0.399667,2.633,2.89983
1.19286,-0.412417,2.717,2.99584
1.20168,-0.412417,2.717,2.99937
1.21049,-0.412417,2.717,3.00291
1.21931,-0.412417,2.717,3.00648
1.21864,-0.40923,2.696,2.9868
1.22739,-0.40923,2.696,2.99038
1.23614,-0.40923,2.696,2.99398
1.24489,-0.40923,2.696,2.99761
1.25364,-0.40923,2.696,3.00125
1.26239,-0.40923,2.696,3.00492
1.27114,-0.40923,2.696,3.0086
1.27989,-0.40923,2.696,3.01231
1.28864,-0.40923,2.696,3.01604
1.29739,-0.40923,2.696,3.01979
1.30614,-0.40923,2.696,3.02356
1.32514,-0.412417,2.717,3.05093
1.33396,-0.412417,2.717,3.05477
1.34278,-0.412417,2.717,3.05863
1.36254,-0.415757,2.739,3.08731
1.38244,-0.419096,2.761,3.11607
1.3914,-0.419096,2.761,3.12006
1.40037,-0.419096,2.761,3.12407
1.4323,-0.425927,2.806,3.17908
1.46555,-0.433061,2.853,3.23651
1.47481,-0.433061,2.853,3.24071
nan,nan,nan,NaN
nan,nan,nan,NaN
nan,nan,nan,NaN
nan,nan,nan,NaN
1.82501,-0.519582,3.423,3.91377
1.83612,-0.519582,3.423,3.91896
1.84723,-0.519582,3.423,3.92418
1.87734,-0.524895,3.458,3.9696
1.88857,-0.524895,3.458,3.97492
1.89979,-0.524895,3.458,3.98026
1.91102,-0.524895,3.458,3.98563
1.92224,-0.524895,3.458,3.99103
1.93346,-0.524895,3.458,3.99644
1.94469,-0.524895,3.458,4.00189
1.93611,-0.519582,3.423,3.96679
1.94722,-0.519582,3.423,3.97223
1.95833,-0.519582,3.423,3.97768
1.94988,-0.514421,3.389,3.9436
1.96088,-0.514421,3.389,3.94905
1.97188,-0.514421,3.389,3.95453
1.98288,-0.514421,3.389,3.96002
1.99388,-0.514421,3.389,3.96554
1.98536,-0.509412,3.356,3.93242
1.97722,-0.504555,3.324,3.90038
1.96887,-0.499698,3.292,3.86826
1.97955,-0.499698,3.292,3.8737
1.97089,-0.49484,3.26,3.84147
1.96324,-0.490286,3.23,3.81151
1.97372,-0.490286,3.23,3.81692
1.98421,-0.490286,3.23,3.82235
1.93973,-0.476777,3.141,3.72233
1.94992,-0.476777,3.141,3.72765
1.92455,-0.468125,3.084,3.66525
1.93456,-0.468125,3.084,3.67052
nan,nan,nan,NaN
1.85444,-0.444142,2.926,3.49252
1.83272,-0.436704,2.877,3.439
1.84206,-0.436704,2.877,3.44398
1.82051,-0.429418,2.829,3.39144
1.79994,-0.422436,2.783,3.34116
1.80897,-0.422436,2.783,3.34603
1.80364,-0.419096,2.761,3.32443
1.78371,-0.412417,2.717,3.27625
1.79253,-0.412417,2.717,3.28106
1.78743,-0.40923,2.696,3.26049
1.78218,-0.406042,2.675,3.23986
1.77681,-0.402855,2.654,3.21917
1.78542,-0.402855,2.654,3.22393
1.77984,-0.399667,2.633,3.20316
1.7748,-0.396631,2.613,3.18355
-2.26157,-0.484262,3.26,3.9971
-2.25099,-0.484262,3.26,3.99112
-2.24041,-0.484262,3.26,3.98516
-2.25171,-0.489016,3.292,4.01828
-2.26281,-0.493769,3.324,4.05131
-2.25202,-0.493769,3.324,4.04529
-2.24123,-0.493769,3.324,4.0393
-2.23045,-0.493769,3.324,4.03332
-2.21966,-0.493769,3.324,4.02736
-2.20887,-0.493769,3.324,4.02143
-2.21924,-0.498522,3.356,4.05417
-2.20835,-0.498522,3.356,4.04822
-2.19745,-0.498522,3.356,4.04228
-2.18656,-0.498522,3.356,4.03637
-2.17567,-0.498522,3.356,4.03048
-2.16478,-0.498522,3.356,4.02461
-2.15388,-0.498522,3.356,4.01877
-2.14299,-0.498522,3.356,4.01294
-2.1321,-0.498522,3.356,4.00713
-2.1212,-0.498522,3.356,4.00135
-2.11031,-0.498522,3.356,3.99558
-2.09942,-0.498522,3.356,3.98984
-2.06861,-0.493769,3.324,3.94613
-2.05782,-0.493769,3.324,3.94049
-2.02733,-0.489016,3.292,3.89698
-2.01664,-0.489016,3.292,3.89143
-1.98646,-0.484262,3.26,3.84813
-1.97588,-0.484262,3.26,3.84268
-1.9653,-0.484262,3.26,3.83725
-1.93673,-0.479806,3.23,3.79658
-1.92624,-0.479806,3.23,3.79124
nan,nan,nan,NaN
nan,nan,nan,NaN
nan,nan,nan,NaN
nan,nan,nan,NaN
nan,nan,nan,NaN
nan,nan,nan,NaN
nan,nan,nan,NaN
nan,nan,nan,NaN
nan,nan,nan,NaN
nan,nan,nan,NaN
nan,nan,nan,NaN
nan,nan,nan,NaN
nan,nan,nan,NaN
nan,nan,nan,NaN
nan,nan,nan,NaN
nan,nan,nan,NaN
nan,nan,nan,NaN
nan,nan,nan,NaN
nan,nan,nan,NaN
nan,nan,nan,NaN
nan,nan,nan,NaN
nan,nan,nan,NaN
nan,nan,nan,NaN
nan,nan,nan,NaN
nan,nan,nan,NaN
nan,nan,nan,NaN
nan,nan,nan,NaN
nan,nan,nan,NaN
nan,nan,nan,NaN
nan,nan,nan,NaN
-1.15458,-0.345965,2.329,2.6224
-1.14702,-0.345965,2.329,2.61908
-1.13946,-0.345965,2.329,2.61578
-1.1319,-0.345965,2.329,2.6125
-1.12435,-0.345965,2.329,2.60923
-1.11679,-0.345965,2.329,2.60598
-1.10923,-0.345965,2.329,2.60275
-1.10167,-0.345965,2.329,2.59954
-1.10162,-0.348342,2.345,2.61418
-1.09401,-0.348342,2.345,2.61098
-1.07899,-0.345965,2.329,2.59001
-1.07143,-0.345965,2.329,2.58687
-1.06387,-0.345965,2.329,2.58375
-1.05631,-0.345965,2.329,2.58064
-1.04875,-0.345965,2.329,2.57756
-1.04119,-0.345965,2.329,2.57449
-1.03363,-0.345965,2.329,2.57145
-1.03312,-0.348342,2.345,2.58606
-1.02551,-0.348342,2.345,2.58303
-1.0179,-0.348342,2.345,2.58002
-1.01029,-0.348342,2.345,2.57702
-1.00268,-0.348342,2.345,2.57405
-0.995066,-0.348342,2.345,2.57109
-0.987455,-0.348342,2.345,2.56816
-0.979844,-0.348342,2.345,2.56524
-0.972232,-0.348342,2.345,2.56234
-0.964621,-0.348342,2.345,2.55947
-0.95701,-0.348342,2.345,2.55661
-0.949399,-0.348342,2.345,2.55377
-0.941787,-0.348342,2.345,2.55095
-0.934176,-0.348342,2.345,2.54815
-0.926565,-0.348342,2.345,2.54537
-0.918953,-0.348342,2.345,2.54261
-0.911342,-0.348342,2.345,2.53986
-0.903731,-0.348342,2.345,2.53714
-0.89612,-0.348342,2.345,2.53444
-0.888508,-0.348342,2.345,2.53176
-0.880897,-0.348342,2.345,2.5291
-0.873286,-0.348342,2.345,2.52646
-0.865674,-0.348342,2.345,2.52384
-0.863918,-0.350719,2.361,2.53844
-0.856255,-0.350719,2.361,2.53584
-0.848591,-0.350719,2.361,2.53327
-0.840928,-0.350719,2.361,2.53071
-0.833265,-0.350719,2.361,2.52817
-0.825602,-0.350719,2.361,2.52566
-0.817938,-0.350719,2.361,2.52316
-0.815766,-0.353095,2.377,2.53777
-0.808051,-0.353095,2.377,2.5353
-0.800336,-0.353095,2.377,2.53285
-0.79829,-0.355621,2.394,2.54852
-0.790519,-0.355621,2.394,2.5461
-0.782749,-0.355621,2.394,2.5437
-0.774979,-0.355621,2.394,2.54132
-0.767208,-0.355621,2.394,2.53896
-0.759438,-0.355621,2.394,2.53662
-0.751668,-0.355621,2.394,2.53431
-0.74918,-0.358146,2.411,2.54999
-0.741354,-0.358146,2.411,2.5477
-0.733529,-0.358146,2.411,2.54544
-0.725703,-0.358146,2.411,2.54319
-0.717878,-0.358146,2.411,2.54097
-0.715059,-0.360671,2.428,2.55667
-0.707178,-0.360671,2.428,2.55448
-0.699297,-0.360671,2.428,2.55231
-0.691417,-0.360671,2.428,2.55016
-0.683536,-0.360671,2.428,2.54804
-0.680386,-0.363196,2.445,2.56376
-0.67245,-0.363196,2.445,2.56166
-0.664514,-0.363196,2.445,2.55959
-0.656578,-0.363196,2.445,2.55754
-0.653418,-0.36587,2.463,2.57433
-0.645424,-0.36587,2.463,2.57231
-0.637429,-0.36587,2.463,2.57032
-0.634035,-0.368544,2.481,2.58712
-0.625982,-0.368544,2.481,2.58516
-0.61793,-0.368544,2.481,2.58322
-0.614302,-0.371218,2.499,2.60003
-0.606191,-0.371218,2.499,2.59813
-0.598079,-0.371218,2.499,2.59625
-0.589968,-0.371218,2.499,2.59439
-0.581857,-0.371218,2.499,2.59256
-0.573746,-0.371218,2.499,2.59075
-0.565635,-0.371218,2.499,2.58897
-0.557524,-0.371218,2.499,2.58721
-0.549413,-0.371218,2.499,2.58547
-0.541301,-0.371218,2.499,2.58376
-0.53319,-0.371218,2.499,2.58207
-0.525079,-0.371218,2.499,2.58041
-0.513244,-0.368544,2.481,2.5602
-0.505192,-0.368544,2.481,2.55859
-0.497139,-0.368544,2.481,2.55702
-0.489086,-0.368544,2.481,2.55546
-0.481034,-0.368544,2.481,2.55393
-0.476412,-0.371218,2.499,2.57095
-0.468301,-0.371218,2.499,2.56946
-0.456875,-0.368544,2.481,2.54949
-0.448823,-0.368544,2.481,2.54806
-0.44077,-0.368544,2.481,2.54666
-0.432717,-0.368544,2.481,2.54528
-0.424665,-0.368544,2.481,2.54392
-0.416612,-0.368544,2.481,2.54259
-0.408559,-0.368544,2.481,2.54128
-0.400506,-0.368544,2.481,2.54
-0.395301,-0.371218,2.499,2.55716
-0.38719,-0.371218,2.499,2.55592
-0.379079,-0.371218,2.499,2.5547
-0.370968,-0.371218,2.499,2.55351
-0.362857,-0.371218,2.499,2.55235
-0.354745,-0.371218,2.499,2.55121
-0.346634,-0.371218,2.499,2.55009
-0.340961,-0.373892,2.517,2.56736
-0.332792,-0.373892,2.517,2.56629
-0.324622,-0.373892,2.517,2.56524
-0.316453,-0.373892,2.517,2.56422
-0.308283,-0.373892,2.517,2.56323
-0.300114,-0.373892,2.517,2.56226
-0.291944,-0.373892,2.517,2.56131
-0.283775,-0.373892,2.517,2.56039
-0.275605,-0.373892,2.517,2.5595
-0.267435,-0.373892,2.517,2.55863
-0.259266,-0.373892,2.517,2.55779
-0.251096,-0.373892,2.517,2.55698
-0.242927,-0.373892,2.517,2.55619
-0.234757,-0.373892,2.517,2.55542
-0.226588,-0.373892,2.517,2.55469
-0.218418,-0.373892,2.517,2.55398
-0.210249,-0.373892,2.517,2.55329
-0.202079,-0.373892,2.517,2.55263
-0.193909,-0.373892,2.517,2.552
-0.18574,-0.373892,2.517,2.55139
-0.17757,-0.373892,2.517,2.55081
-0.169401,-0.373892,2.517,2.55025
-0.161231,-0.373892,2.517,2.54972
-0.153062,-0.373892,2.517,2.54922
-0.143856,-0.371218,2.499,2.53051
-0.135745,-0.371218,2.499,2.53007
-0.127634,-0.371218,2.499,2.52964
-0.119523,-0.371218,2.499,2.52925
-0.112214,-0.373892,2.517,2.54709
-0.1033,-0.371218,2.499,2.52853
-0.0951891,-0.371218,2.499,2.52821
-0.087078,-0.371218,2.499,2.52792
-0.0789668,-0.371218,2.499,2.52766
-0.0708557,-0.371218,2.499,2.52741
-0.0627446,-0.371218,2.499,2.5272
-0.0546334,-0.371218,2.499,2.52701
-0.0465223,-0.371218,2.499,2.52685
-0.0384112,-0.371218,2.499,2.52671
-0.0305183,-0.373892,2.517,2.5448
-0.0223487,-0.373892,2.517,2.54472
-0.0141792,-0.373892,2.517,2.54466
-0.00600962,-0.373892,2.517,2.54463
0.00215994,-0.373892,2.517,2.54462
0.0103295,-0.373892,2.517,2.54464
0.0184991,-0.373892,2.517,2.54469
0.0270712,-0.379537,2.555,2.58318
0.0353641,-0.379537,2.555,2.58328
0.043657,-0.379537,2.555,2.5834
0.0519499,-0.379537,2.555,2.58356
0.0606908,-0.382359,2.574,2.60295
0.0690454,-0.382359,2.574,2.60316
0.0773999,-0.382359,2.574,2.6034
0.0863875,-0.385181,2.593,2.62288
0.0948037,-0.385181,2.593,2.62317
0.10322,-0.385181,2.593,2.62348
0.111636,-0.385181,2.593,2.62383
0.120052,-0.385181,2.593,2.6242
0.128469,-0.385181,2.593,2.6246
0.137941,-0.388152,2.613,2.64527
0.146422,-0.388152,2.613,2.64573
0.154903,-0.388152,2.613,2.64621
0.162134,-0.385181,2.593,2.62646
0.17055,-0.385181,2.593,2.62699
0.178966,-0.385181,2.593,2.62755
0.187382,-0.385181,2.593,2.62814
0.195799,-0.385181,2.593,2.62875
0.204215,-0.385181,2.593,2.6294
0.212631,-0.385181,2.593,2.63006
0.221047,-0.385181,2.593,2.63076
0.229463,-0.385181,2.593,2.63148
0.23788,-0.385181,2.593,2.63222
0.246296,-0.385181,2.593,2.633
0.254712,-0.385181,2.593,2.6338
0.263128,-0.385181,2.593,2.63463
0.271545,-0.385181,2.593,2.63548
0.279961,-0.385181,2.593,2.63636
0.288377,-0.385181,2.593,2.63727
0.296793,-0.385181,2.593,2.6382
0.30521,-0.385181,2.593,2.63916
0.313626,-0.385181,2.593,2.64015
0.322042,-0.385181,2.593,2.64116
0.330458,-0.385181,2.593,2.6422
0.338875,-0.385181,2.593,2.64327
0.344746,-0.382359,2.574,2.62498
0.353101,-0.382359,2.574,2.62609
0.361455,-0.382359,2.574,2.62723
0.36981,-0.382359,2.574,2.62839
0.375373,-0.379537,2.555,2.61017
0.383666,-0.379537,2.555,2.61137
0.391959,-0.379537,2.555,2.6126
0.400252,-0.379537,2.555,2.61386
0.408544,-0.379537,2.555,2.61514
0.416837,-0.379537,2.555,2.61645
0.421969,-0.376714,2.536,2.59832
0.4302,-0.376714,2.536,2.59967
0.438431,-0.376714,2.536,2.60104
0.446662,-0.376714,2.536,2.60244
0.454894,-0.376714,2.536,2.60387
0.463125,-0.376714,2.536,2.60532
0.471356,-0.376714,2.536,2.6068
0.479587,-0.376714,2.536,2.6083
0.487819,-0.376714,2.536,2.60982
0.49605,-0.376714,2.536,2.61137
0.504281,-0.376714,2.536,2.61295
0.512512,-0.376714,2.536,2.61455
0.524645,-0.379537,2.555,2.63578
0.532938,-0.379537,2.555,2.63744
0.537206,-0.376714,2.536,2.6195
0.545437,-0.376714,2.536,2.6212
0.553668,-0.376714,2.536,2.62293
0.566109,-0.379537,2.555,2.64434
0.574402,-0.379537,2.555,2.64613
0.582695,-0.379537,2.555,2.64794
0.590988,-0.379537,2.555,2.64978
0.599281,-0.379537,2.555,2.65164
0.607574,-0.379537,2.555,2.65353
0.615867,-0.379537,2.555,2.65544
0.62416,-0.379537,2.555,2.65738
0.632453,-0.379537,2.555,2.65934
0.640746,-0.379537,2.555,2.66132
0.649038,-0.379537,2.555,2.66333
0.657331,-0.379537,2.555,2.66536
0.665624,-0.379537,2.555,2.66742
0.673917,-0.379537,2.555,2.6695
0.68221,-0.379537,2.555,2.67161
0.690503,-0.379537,2.555,2.67374
0.698796,-0.379537,2.555,2.67589
0.70183,-0.376714,2.536,2.65815
0.710062,-0.376714,2.536,2.66034
0.718293,-0.376714,2.536,2.66255
0.726524,-0.376714,2.536,2.66478
0.734755,-0.376714,2.536,2.66703
0.742987,-0.376714,2.536,2.66931
0.74559,-0.373892,2.517,2.6516
0.753759,-0.373892,2.517,2.65391
0.761929,-0.373892,2.517,2.65624
0.775912,-0.376714,2.536,2.67867
0.784143,-0.376714,2.536,2.68106
0.792374,-0.376714,2.536,2.68348
0.794607,-0.373892,2.517,2.6658
0.802777,-0.373892,2.517,2.66825
0.810946,-0.373892,2.517,2.67072
0.819116,-0.373892,2.517,2.67321
0.827285,-0.373892,2.517,2.67572
0.835455,-0.373892,2.517,2.67826
0.843624,-0.373892,2.517,2.68082
0.845702,-0.371218,2.499,2.66421
0.853814,-0.371218,2.499,2.6668
0.861925,-0.371218,2.499,2.6694
0.870036,-0.371218,2.499,2.67203
0.871822,-0.368544,2.481,2.65542
0.879874,-0.368544,2.481,2.65808
0.887927,-0.368544,2.481,2.66075
0.889479,-0.36587,2.463,2.64413
0.897474,-0.36587,2.463,2.64683
0.905468,-0.36587,2.463,2.64955
0.906787,-0.363196,2.445,2.63291
0.914722,-0.363196,2.445,2.63565
0.922658,-0.363196,2.445,2.63842
0.930594,-0.363196,2.445,2.6412
0.93853,-0.363196,2.445,2.64401
0.946466,-0.363196,2.445,2.64684
0.954402,-0.363196,2.445,2.64968
0.955646,-0.360671,2.428,2.63411
0.963527,-0.360671,2.428,2.63698
0.971408,-0.360671,2.428,2.63987
0.979289,-0.360671,2.428,2.64278
0.987169,-0.360671,2.428,2.64571
0.99505,-0.360671,2.428,2.64866
1.00995,-0.363196,2.445,2.6702
1.01789,-0.363196,2.445,2.67321
1.02582,-0.363196,2.445,2.67624
nan,nan,nan,NaN
nan,nan,nan,NaN
nan,nan,nan,NaN
1.15705,-0.397362,2.675,2.94148
1.16574,-0.397362,2.675,2.9449
1.20252,-0.406869,2.739,3.01889
1.21141,-0.406869,2.739,3.02244
1.2203,-0.406869,2.739,3.02602
1.22919,-0.406869,2.739,3.02961
1.23808,-0.406869,2.739,3.03323
1.24697,-0.406869,2.739,3.03687
1.26594,-0.410137,2.761,3.06495
1.27491,-0.410137,2.761,3.06867
1.28387,-0.410137,2.761,3.0724
1.29283,-0.410137,2.761,3.07616
1.30179,-0.410137,2.761,3.07993
1.31075,-0.410137,2.761,3.08373
1.33023,-0.413405,2.783,3.11215
1.33926,-0.413405,2.783,3.11603
1.34829,-0.413405,2.783,3.11992
1.35733,-0.413405,2.783,3.12383
1.37765,-0.416822,2.806,3.15362
1.38676,-0.416822,2.806,3.15761
1.39587,-0.416822,2.806,3.16162
1.40498,-0.416822,2.806,3.16565
1.42567,-0.420238,2.829,3.19568
1.43486,-0.420238,2.829,3.19979
1.45629,-0.423804,2.853,3.2311
1.49021,-0.430934,2.901,3.28971
1.49962,-0.430934,2.901,3.29399
nan,nan,nan,NaN
nan,nan,nan,NaN
nan,nan,nan,NaN
1.74448,-0.489016,3.292,3.75761
1.75517,-0.489016,3.292,3.76258
1.81788,-0.503425,3.389,3.87859
1.82888,-0.503425,3.389,3.88376
1.85834,-0.508475,3.423,3.92797
1.88857,-0.513674,3.458,3.97345
1.89979,-0.513674,3.458,3.9788
1.91102,-0.513674,3.458,3.98417
1.92224,-0.513674,3.458,3.98956
1.93346,-0.513674,3.458,3.99498
1.94469,-0.513674,3.458,4.00043
1.93611,-0.508475,3.423,3.96535
1.94722,-0.508475,3.423,3.97079
1.95833,-0.508475,3.423,3.97625
1.94988,-0.503425,3.389,3.94218
1.96088,-0.503425,3.389,3.94763
1.97188,-0.503425,3.389,3.95311
1.98288,-0.503425,3.389,3.95861
1.99388,-0.503425,3.389,3.96413
2.00488,-0.503425,3.389,3.96967
1.99625,-0.498522,3.356,3.93653
1.98801,-0.493769,3.324,3.90448
1.99879,-0.493769,3.324,3.90998
1.99024,-0.489016,3.292,3.87781
1.98147,-0.484262,3.26,3.84556
1.99205,-0.484262,3.26,3.85102
1.98421,-0.479806,3.23,3.82102
1.93973,-0.466585,3.141,3.72104
1.94992,-0.466585,3.141,3.72636
1.92455,-0.458118,3.084,3.66399
1.93456,-0.458118,3.084,3.66926
nan,nan,nan,NaN
1.85444,-0.434647,2.926,3.49132
1.83272,-0.427369,2.877,3.43783
1.84206,-0.427369,2.877,3.44281
1.82051,-0.420238,2.829,3.39029
1.79994,-0.413405,2.783,3.34003
1.80897,-0.413405,2.783,3.3449
1.80364,-0.410137,2.761,3.32332
1.78371,-0.403601,2.717,3.27515
1.79253,-0.403601,2.717,3.27996
1.78743,-0.400482,2.696,3.2594
1.78218,-0.397362,2.675,3.23878
1.77681,-0.394243,2.654,3.2181
1.78542,-0.394243,2.654,3.22287
1.77984,-0.391123,2.633,3.20211
1.7748,-0.388152,2.613,3.18251
-2.26157,-0.473684,3.26,3.99583
-2.25099,-0.473684,3.26,3.98985
-2.24041,-0.473684,3.26,3.98389
-2.25171,-0.478334,3.292,4.017
-2.26281,-0.482983,3.324,4.05001
-2.25202,-0.482983,3.324,4.04399
-2.24123,-0.482983,3.324,4.03799
-2.23045,-0.482983,3.324,4.03201
-2.21966,-0.482983,3.324,4.02606
-2.20887,-0.482983,3.324,4.02012
-2.21924,-0.487633,3.356,4.05284
-2.20835,-0.487633,3.356,4.04689
-2.19745,-0.487633,3.356,4.04096
-2.18656,-0.487633,3.356,4.03504
-2.17567,-0.487633,3.356,4.02915
-2.16478,-0.487633,3.356,4.02328
-2.15388,-0.487633,3.356,4.01743
-2.14299,-0.487633,3.356,4.0116
-2.1321,-0.487633,3.356,4.00579
-2.1212,-0.487633,3.356,4
-2.11031,-0.487633,3.356,3.99424
-2.09942,-0.487633,3.356,3.98849
-2.06861,-0.482983,3.324,3.94479
-2.05782,-0.482983,3.324,3.93915
-2.02733,-0.478334,3.292,3.89565
-2.01664,-0.478334,3.292,3.8901
-1.98646,-0.473684,3.26,3.84682
-1.97588,-0.473684,3.26,3.84136
-1.9653,-0.473684,3.26,3.83593
-1.93673,-0.469325,3.23,3.79527
-1.92624,-0.469325,3.23,3.78993
nan,nan,nan,NaN
nan,nan,nan,NaN
nan,nan,nan,NaN
nan,nan,nan,NaN
nan,nan,nan,NaN
nan,nan,nan,NaN
nan,nan,nan,NaN
nan,nan,nan,NaN
nan,nan,nan,NaN
nan,nan,nan,NaN
nan,nan,nan,NaN
nan,nan,nan,NaN
nan,nan,nan,NaN
nan,nan,nan,NaN
nan,nan,nan,NaN
nan,nan,nan,NaN
nan,nan,nan,NaN
nan,nan,nan,NaN
nan,nan,nan,NaN
nan,nan,nan,NaN
nan,nan,nan,NaN
nan,nan,nan,NaN
nan,nan,nan,NaN
nan,nan,nan,NaN
nan,nan,nan,NaN
nan,nan,nan,NaN
nan,nan,nan,NaN
nan,nan,nan,NaN
nan,nan,nan,NaN
nan,nan,nan,NaN
-1.15458,-0.338408,2.329,2.62142
-1.14702,-0.338408,2.329,2.6181
-1.13946,-0.338408,2.329,2.61479
-1.1319,-0.338408,2.329,2.61151
-1.12435,-0.338408,2.329,2.60824
-1.11679,-0.338408,2.329,2.60499
-1.10923,-0.338408,2.329,2.60176
-1.10167,-0.338408,2.329,2.59854
-1.10162,-0.340733,2.345,2.61318
-1.09401,-0.340733,2.345,2.60998
-1.0864,-0.340733,2.345,2.6068
-1.07879,-0.340733,2.345,2.60363
-1.07118,-0.340733,2.345,2.60049
-1.06357,-0.340733,2.345,2.59736
-1.05596,-0.340733,2.345,2.59426
-1.04835,-0.340733,2.345,2.59117
-1.04073,-0.340733,2.345,2.5881
-1.03312,-0.340733,2.345,2.58505
-1.02551,-0.340733,2.345,2.58201
-1.0179,-0.340733,2.345,2.579
-1.01029,-0.340733,2.345,2.57601
-1.00268,-0.340733,2.345,2.57303
-0.995066,-0.340733,2.345,2.57007
-0.987455,-0.340733,2.345,2.56714
-0.979844,-0.340733,2.345,2.56422
-0.972232,-0.340733,2.345,2.56132
-0.964621,-0.340733,2.345,2.55844
-0.95701,-0.340733,2.345,2.55558
-0.949399,-0.340733,2.345,2.55274
-0.941787,-0.340733,2.345,2.54992
-0.934176,-0.340733,2.345,2.54712
-0.926565,-0.340733,2.345,2.54434
-0.918953,-0.340733,2.345,2.54157
-0.911342,-0.340733,2.345,2.53883
-0.903731,-0.340733,2.345,2.53611
-0.89612,-0.340733,2.345,2.53341
-0.888508,-0.340733,2.345,2.53073
-0.880897,-0.340733,2.345,2.52806
-0.873286,-0.340733,2.345,2.52542
-0.865674,-0.340733,2.345,2.5228
-0.858063,-0.340733,2.345,2.5202
-0.856255,-0.343058,2.361,2.53479
-0.848591,-0.343058,2.361,2.53222
-0.840928,-0.343058,2.361,2.52966
-0.833265,-0.343058,2.361,2.52712
-0.825602,-0.343058,2.361,2.5246
-0.817938,-0.343058,2.361,2.52211
-0.815766,-0.345382,2.377,2.53671
-0.808051,-0.345382,2.377,2.53424
-0.800336,-0.345382,2.377,2.53179
-0.79829,-0.347852,2.394,2.54745
-0.790519,-0.347852,2.394,2.54503
-0.782749,-0.347852,2.394,2.54262
-0.774979,-0.347852,2.394,2.54024
-0.772656,-0.350323,2.411,2.5559
-0.764831,-0.350323,2.411,2.55355
-0.757005,-0.350323,2.411,2.55122
-0.74918,-0.350323,2.411,2.54891
-0.741354,-0.350323,2.411,2.54662
-0.733529,-0.350323,2.411,2.54435
-0.73082,-0.352793,2.428,2.56003
-0.722939,-0.352793,2.428,2.55779
-0.715059,-0.352793,2.428,2.55557
-0.707178,-0.352793,2.428,2.55338
-0.699297,-0.352793,2.428,2.55121
-0.696258,-0.355263,2.445,2.56691
-0.688322,-0.355263,2.445,2.56477
-0.680386,-0.355263,2.445,2.56265
-0.67245,-0.355263,2.445,2.56055
-0.664514,-0.355263,2.445,2.55848
-0.656578,-0.355263,2.445,2.55643
-0.653418,-0.357878,2.463,2.57321
-0.645424,-0.357878,2.463,2.57119
-0.637429,-0.357878,2.463,2.56919
-0.634035,-0.360494,2.481,2.58598
-0.625982,-0.360494,2.481,2.58402
-0.61793,-0.360494,2.481,2.58208
-0.614302,-0.363109,2.499,2.59889
-0.606191,-0.363109,2.499,2.59698
-0.598079,-0.363109,2.499,2.5951
-0.589968,-0.363109,2.499,2.59324
-0.581857,-0.363109,2.499,2.59141
-0.573746,-0.363109,2.499,2.5896
-0.565635,-0.363109,2.499,2.58782
-0.557524,-0.363109,2.499,2.58606
-0.549413,-0.363109,2.499,2.58432
-0.541301,-0.363109,2.499,2.58261
-0.53319,-0.363109,2.499,2.58092
-0.525079,-0.363109,2.499,2.57926
-0.516968,-0.363109,2.499,2.57762
-0.508857,-0.363109,2.499,2.576
-0.504353,-0.365725,2.517,2.59296
-0.492635,-0.363109,2.499,2.57285
-0.484524,-0.363109,2.499,2.57131
-0.476412,-0.363109,2.499,2.56979
-0.468301,-0.363109,2.499,2.5683
-0.46019,-0.363109,2.499,2.56683
-0.452079,-0.363109,2.499,2.56539
-0.443968,-0.363109,2.499,2.56397
-0.435857,-0.363109,2.499,2.56258
-0.427746,-0.363109,2.499,2.56121
-0.422657,-0.365725,2.517,2.57831
-0.411523,-0.363109,2.499,2.55855
-0.403412,-0.363109,2.499,2.55726
-0.395301,-0.363109,2.499,2.556
-0.38719,-0.363109,2.499,2.55475
-0.379079,-0.363109,2.499,2.55354
-0.370968,-0.363109,2.499,2.55235
-0.36547,-0.365725,2.517,2.56956
-0.357301,-0.365725,2.517,2.56841
-0.349131,-0.365725,2.517,2.56728
-0.340961,-0.365725,2.517,2.56618
-0.332792,-0.365725,2.517,2.56511
-0.324622,-0.365725,2.517,2.56406
-0.316453,-0.365725,2.517,2.56304
-0.308283,-0.365725,2.517,2.56205
-0.300114,-0.365725,2.517,2.56108
-0.291944,-0.365725,2.517,2.56013
-0.283775,-0.365725,2.517,2.55921
-0.275605,-0.365725,2.517,2.55832
-0.267435,-0.365725,2.517,2.55745
-0.259266,-0.365725,2.517,2.55661
-0.251096,-0.365725,2.517,2.5558
-0.242927,-0.365725,2.517,2.55501
-0.234757,-0.365725,2.517,2.55424
-0.226588,-0.365725,2.517,2.5535
-0.218418,-0.365725,2.517,2.55279
-0.210249,-0.365725,2.517,2.55211
-0.203604,-0.368485,2.536,2.57071
-0.195373,-0.368485,2.536,2.57007
-0.187142,-0.368485,2.536,2.56946
-0.178911,-0.368485,2.536,2.56887
-0.170679,-0.368485,2.536,2.56831
-0.161231,-0.365725,2.517,2.54854
-0.153062,-0.365725,2.517,2.54803
-0.144892,-0.365725,2.517,2.54756
-0.136723,-0.365725,2.517,2.5471
-0.128553,-0.365725,2.517,2.54668
-0.120383,-0.365725,2.517,2.54628
-0.112214,-0.365725,2.517,2.54591
-0.104044,-0.365725,2.517,2.54556
-0.0958747,-0.365725,2.517,2.54524
-0.087078,-0.363109,2.499,2.52674
-0.0789668,-0.363109,2.499,2.52648
-0.0713661,-0.365725,2.517,2.54443
-0.0631965,-0.365725,2.517,2.54422
-0.0546334,-0.363109,2.499,2.52583
-0.0465223,-0.363109,2.499,2.52567
-0.0384112,-0.363109,2.499,2.52553
-0.0305183,-0.365725,2.517,2.54361
-0.0223487,-0.365725,2.517,2.54353
-0.0141792,-0.365725,2.517,2.54347
-0.00600962,-0.365725,2.517,2.54344
0.00215994,-0.365725,2.517,2.54343
0.0103295,-0.365725,2.517,2.54345
0.0184991,-0.365725,2.517,2.5435
0.0270712,-0.371246,2.555,2.58197
0.0353641,-0.371246,2.555,2.58207
0.043657,-0.371246,2.555,2.5822
0.0519499,-0.371246,2.555,2.58235
0.0606908,-0.374007,2.574,2.60174
0.0690454,-0.374007,2.574,2.60195
0.0773999,-0.374007,2.574,2.60218
0.0863875,-0.376768,2.593,2.62165
0.0948037,-0.376768,2.593,2.62194
0.10322,-0.376768,2.593,2.62226
0.111636,-0.376768,2.593,2.62261
0.120052,-0.376768,2.593,2.62298
0.128469,-0.376768,2.593,2.62338
0.137941,-0.379674,2.613,2.64404
0.146422,-0.379674,2.613,2.6445
0.154903,-0.379674,2.613,2.64498
0.162134,-0.376768,2.593,2.62524
0.17055,-0.376768,2.593,2.62577
0.178966,-0.376768,2.593,2.62633
0.187382,-0.376768,2.593,2.62692
0.195799,-0.376768,2.593,2.62754
0.204215,-0.376768,2.593,2.62818
0.212631,-0.376768,2.593,2.62884
0.221047,-0.376768,2.593,2.62954
0.229463,-0.376768,2.593,2.63026
0.23788,-0.376768,2.593,2.63101
0.246296,-0.376768,2.593,2.63178
0.254712,-0.376768,2.593,2.63258
0.263128,-0.376768,2.593,2.63341
0.271545,-0.376768,2.593,2.63426
0.279961,-0.376768,2.593,2.63514
0.288377,-0.376768,2.593,2.63605
0.296793,-0.376768,2.593,2.63699
0.30521,-0.376768,2.593,2.63795
0.313626,-0.376768,2.593,2.63893
0.322042,-0.376768,2.593,2.63995
0.330458,-0.376768,2.593,2.64099
0.338875,-0.376768,2.593,2.64205
0.344746,-0.374007,2.574,2.62378
0.353101,-0.374007,2.574,2.62489
0.361455,-0.374007,2.574,2.62602
0.36981,-0.374007,2.574,2.62719
0.375373,-0.371246,2.555,2.60898
0.383666,-0.371246,2.555,2.61018
0.391959,-0.371246,2.555,2.61141
0.397275,-0.368485,2.536,2.59324
0.405506,-0.368485,2.536,2.59452
0.413738,-0.368485,2.536,2.59582
0.421969,-0.368485,2.536,2.59714
0.4302,-0.368485,2.536,2.59849
0.438431,-0.368485,2.536,2.59987
0.446662,-0.368485,2.536,2.60127
0.454894,-0.368485,2.536,2.60269
0.463125,-0.368485,2.536,2.60414
0.471356,-0.368485,2.536,2.60562
0.479587,-0.368485,2.536,2.60712
0.487819,-0.368485,2.536,2.60865
0.49605,-0.368485,2.536,2.6102
0.504281,-0.368485,2.536,2.61178
0.512512,-0.368485,2.536,2.61338
0.524645,-0.371246,2.555,2.6346
0.532938,-0.371246,2.555,2.63626
0.541231,-0.371246,2.555,2.63795
0.549524,-0.371246,2.555,2.63966
0.557817,-0.371246,2.555,2.6414
0.566109,-0.371246,2.555,2.64317
0.574402,-0.371246,2.555,2.64495
0.582695,-0.371246,2.555,2.64677
0.590988,-0.371246,2.555,2.64861
0.599281,-0.371246,2.555,2.65047
0.607574,-0.371246,2.555,2.65236
0.615867,-0.371246,2.555,2.65427
0.62416,-0.371246,2.555,2.6562
0.632453,-0.371246,2.555,2.65817
0.640746,-0.371246,2.555,2.66015
0.649038,-0.371246,2.555,2.66216
0.657331,-0.371246,2.555,2.66419
0.665624,-0.371246,2.555,2.66625
0.673917,-0.371246,2.555,2.66834
0.677137,-0.368485,2.536,2.65058
0.685368,-0.368485,2.536,2.6527
0.693599,-0.368485,2.536,2.65484
0.70183,-0.368485,2.536,2.657
0.710062,-0.368485,2.536,2.65918
0.718293,-0.368485,2.536,2.66139
0.726524,-0.368485,2.536,2.66363
0.734755,-0.368485,2.536,2.66588
0.73742,-0.365725,2.517,2.64818
0.74559,-0.365725,2.517,2.65046
0.759449,-0.368485,2.536,2.6728
0.76768,-0.368485,2.536,2.67515
0.775912,-0.368485,2.536,2.67752
0.784143,-0.368485,2.536,2.67992
0.792374,-0.368485,2.536,2.68234
0.794607,-0.365725,2.517,2.66467
0.802777,-0.365725,2.517,2.66711
0.810946,-0.365725,2.517,2.66958
0.819116,-0.365725,2.517,2.67208
0.827285,-0.365725,2.517,2.67459
0.835455,-0.365725,2.517,2.67713
0.837591,-0.363109,2.499,2.66053
0.845702,-0.363109,2.499,2.66309
0.853814,-0.363109,2.499,2.66568
0.861925,-0.363109,2.499,2.66829
0.863769,-0.360494,2.481,2.65168
0.871822,-0.360494,2.481,2.65432
0.879874,-0.360494,2.481,2.65697
0.887927,-0.360494,2.481,2.65965
0.889479,-0.357878,2.463,2.64303
0.897474,-0.357878,2.463,2.64573
0.905468,-0.357878,2.463,2.64846
0.906787,-0.355263,2.445,2.63182
0.914722,-0.355263,2.445,2.63457
0.922658,-0.355263,2.445,2.63734
0.930594,-0.355263,2.445,2.64012
0.93853,-0.355263,2.445,2.64293
0.946466,-0.355263,2.445,2.64576
0.947766,-0.352793,2.428,2.63019
0.955646,-0.352793,2.428,2.63304
0.963527,-0.352793,2.428,2.63591
0.971408,-0.352793,2.428,2.6388
0.979289,-0.352793,2.428,2.64171
0.987169,-0.352793,2.428,2.64465
0.99505,-0.352793,2.428,2.6476
1.00995,-0.355263,2.445,2.66913
1.01789,-0.355263,2.445,2.67214
1.02582,-0.355263,2.445,2.67517
nan,nan,nan,NaN
nan,nan,nan,NaN
nan,nan,nan,NaN
1.15705,-0.388682,2.675,2.94032
1.16574,-0.388682,2.675,2.94375
1.21217,-0.401178,2.761,3.04195
1.22114,-0.401178,2.761,3.04553
1.2399,-0.404375,2.783,3.07343
1.24893,-0.404375,2.783,3.07708
1.25796,-0.404375,2.783,3.08076
1.267,-0.404375,2.783,3.08446
1.29712,-0.411059,2.829,3.13923
1.3063,-0.411059,2.829,3.14303
1.31549,-0.411059,2.829,3.14686
1.33591,-0.414546,2.853,3.17744
1.34517,-0.414546,2.853,3.18134
1.35443,-0.414546,2.853,3.18527
1.37516,-0.418033,2.877,3.21604
1.3845,-0.418033,2.877,3.22005
1.39384,-0.418033,2.877,3.22407
1.40317,-0.418033,2.877,3.22812
1.41251,-0.418033,2.877,3.23219
1.43371,-0.421521,2.901,3.26328
1.44313,-0.421521,2.901,3.26743
1.44053,-0.418033,2.877,3.24453
1.44986,-0.418033,2.877,3.24869
1.4592,-0.418033,2.877,3.25287
1.48079,-0.421521,2.901,3.28424
nan,nan,nan,NaN
nan,nan,nan,NaN
nan,nan,nan,NaN
nan,nan,nan,NaN
nan,nan,nan,NaN
1.74448,-0.478334,3.292,3.75623
1.75517,-0.478334,3.292,3.76121
1.81788,-0.492428,3.389,3.87718
1.82888,-0.492428,3.389,3.88235
1.85834,-0.497368,3.423,3.92654
1.88857,-0.502454,3.458,3.97202
1.89979,-0.502454,3.458,3.97736
1.91102,-0.502454,3.458,3.98274
1.92224,-0.502454,3.458,3.98814
1.93346,-0.502454,3.458,3.99356
1.94469,-0.502454,3.458,3.999
1.93611,-0.497368,3.423,3.96394
1.94722,-0.497368,3.423,3.96938
1.95833,-0.497368,3.423,3.97484
1.96944,-0.497368,3.423,3.98033
1.98055,-0.497368,3.423,3.98584
1.99166,-0.497368,3.423,3.99137
1.98288,-0.492428,3.389,3.95722
1.99388,-0.492428,3.389,3.96275
2.00488,-0.492428,3.389,3.96829
1.99625,-0.487633,3.356,3.93517
1.98801,-0.482983,3.324,3.90313
1.99879,-0.482983,3.324,3.90864
1.99024,-0.478334,3.292,3.87648
2.00092,-0.478334,3.292,3.88198
2.01161,-0.478334,3.292,3.8875
1.98421,-0.469325,3.23,3.81972
1.95764,-0.460607,3.17,3.75412
1.96793,-0.460607,3.17,3.75949
1.92455,-0.448111,3.084,3.66275
1.93456,-0.448111,3.084,3.66802
nan,nan,nan,NaN
1.87028,-0.428786,2.951,3.51997
1.84801,-0.421521,2.901,3.46535
1.85743,-0.421521,2.901,3.47038
1.82051,-0.411059,2.829,3.38917
1.79994,-0.404375,2.783,3.33892
1.80897,-0.404375,2.783,3.3438
1.80364,-0.401178,2.761,3.32222
1.78371,-0.394785,2.717,3.27408
1.79253,-0.394785,2.717,3.27889
1.78743,-0.391734,2.696,3.25834
1.78218,-0.388682,2.675,3.23773
1.77681,-0.385631,2.654,3.21706
1.78542,-0.385631,2.654,3.22183
1.77984,-0.38258,2.633,3.20108
1.7748,-0.379674,2.613,3.18148
-2.26157,-0.463106,3.26,3.99459
-2.25099,-0.463106,3.26,3.98861
-2.24041,-0.463106,3.26,3.98265
-2.25171,-0.467652,3.292,4.01574
-2.24103,-0.467652,3.292,4.00976
-2.23034,-0.467652,3.292,4.0038
-2.21966,-0.467652,3.292,3.99785
-2.23045,-0.472197,3.324,4.03074
-2.21966,-0.472197,3.324,4.02478
-2.20887,-0.472197,3.324,4.01884
-2.21924,-0.476743,3.356,4.05155
-2.20835,-0.476743,3.356,4.04559
-2.19745,-0.476743,3.356,4.03966
-2.18656,-0.476743,3.356,4.03374
-2.17567,-0.476743,3.356,4.02785
-2.16478,-0.476743,3.356,4.02197
-2.15388,-0.476743,3.356,4.01612
-2.14299,-0.476743,3.356,4.01029
-2.1321,-0.476743,3.356,4.00448
-2.1212,-0.476743,3.356,3.99869
-2.11031,-0.476743,3.356,3.99292
-2.09942,-0.476743,3.356,3.98718
-2.06861,-0.472197,3.324,3.94349
-2.05782,-0.472197,3.324,3.93784
-2.04703,-0.472197,3.324,3.93221
-2.03625,-0.472197,3.324,3.92661
-1.98646,-0.463106,3.26,3.84553
-1.97588,-0.463106,3.26,3.84007
-1.9653,-0.463106,3.26,3.83464
-1.93673,-0.458844,3.23,3.79399
-1.92624,-0.458844,3.23,3.78865
nan,nan,nan,NaN
nan,nan,nan,NaN
nan,nan,nan,NaN
nan,nan,nan,NaN
nan,nan,nan,NaN
nan,nan,nan,NaN
nan,nan,nan,NaN
nan,nan,nan,NaN
nan,nan,nan,NaN
nan,nan,nan,NaN
nan,nan,nan,NaN
nan,nan,nan,NaN
nan,nan,nan,NaN
nan,nan,nan,NaN
nan,nan,nan,NaN
nan,nan,nan,NaN
nan,nan,nan,NaN
nan,nan,nan,NaN
nan,nan,nan,NaN
nan,nan,nan,NaN
nan,nan,nan,NaN
nan,nan,nan,NaN
nan,nan,nan,NaN
nan,nan,nan,NaN
nan,nan,nan,NaN
nan,nan,nan,NaN
nan,nan,nan,NaN
nan,nan,nan,NaN
nan,nan,nan,NaN
nan,nan,nan,NaN
-1.16251,-0.333124,2.345,2.63845
-1.1549,-0.333124,2.345,2.63511
-1.14729,-0.333124,2.345,2.63178
-1.13968,-0.333124,2.345,2.62847
-1.13207,-0.333124,2.345,2.62518
-1.12446,-0.333124,2.345,2.62191
-1.11685,-0.333124,2.345,2.61865
-1.10924,-0.333124,2.345,2.61542
-1.10162,-0.333124,2.345,2.6122
-1.09401,-0.333124,2.345,2.609
-1.0864,-0.333124,2.345,2.60581
-1.08615,-0.335396,2.361,2.62041
-1.07849,-0.335396,2.361,2.61724
-1.07082,-0.335396,2.361,2.61409
-1.05596,-0.333124,2.345,2.59327
-1.04835,-0.333124,2.345,2.59018
-1.04073,-0.333124,2.345,2.58711
-1.03312,-0.333124,2.345,2.58405
-1.02551,-0.333124,2.345,2.58102
-1.0179,-0.333124,2.345,2.57801
-1.01029,-0.333124,2.345,2.57501
-1.00268,-0.333124,2.345,2.57203
-0.995066,-0.333124,2.345,2.56908
-0.987455,-0.333124,2.345,2.56614
-0.979844,-0.333124,2.345,2.56322
-0.972232,-0.333124,2.345,2.56032
-0.964621,-0.333124,2.345,2.55744
-0.95701,-0.333124,2.345,2.55458
-0.949399,-0.333124,2.345,2.55174
-0.941787,-0.333124,2.345,2.54891
-0.934176,-0.333124,2.345,2.54611
-0.926565,-0.333124,2.345,2.54333
-0.918953,-0.333124,2.345,2.54057
-0.911342,-0.333124,2.345,2.53782
-0.903731,-0.333124,2.345,2.5351
-0.89612,-0.333124,2.345,2.5324
-0.888508,-0.333124,2.345,2.52971
-0.880897,-0.333124,2.345,2.52705
-0.873286,-0.333124,2.345,2.52441
-0.865674,-0.333124,2.345,2.52178
-0.858063,-0.333124,2.345,2.51918
-0.856255,-0.335396,2.361,2.53377
-0.848591,-0.335396,2.361,2.53119
-0.840928,-0.335396,2.361,2.52863
-0.833265,-0.335396,2.361,2.52609
-0.825602,-0.335396,2.361,2.52357
-0.817938,-0.335396,2.361,2.52108
-0.815766,-0.337669,2.377,2.53567
-0.808051,-0.337669,2.377,2.5332
-0.800336,-0.337669,2.377,2.53075
-0.79829,-0.340084,2.394,2.5464
-0.790519,-0.340084,2.394,2.54398
-0.782749,-0.340084,2.394,2.54157
-0.774979,-0.340084,2.394,2.53919
-0.772656,-0.342499,2.411,2.55484
-0.764831,-0.342499,2.411,2.55249
-0.757005,-0.342499,2.411,2.55015
-0.74918,-0.342499,2.411,2.54784
-0.741354,-0.342499,2.411,2.54555
-0.733529,-0.342499,2.411,2.54328
-0.73082,-0.344914,2.428,2.55895
-0.722939,-0.344914,2.428,2.55672
-0.715059,-0.344914,2.428,2.5545
-0.707178,-0.344914,2.428,2.5523
-0.699297,-0.344914,2.428,2.55013
-0.696258,-0.347329,2.445,2.56582
-0.688322,-0.347329,2.445,2.56368
-0.680386,-0.347329,2.445,2.56156
-0.67245,-0.347329,2.445,2.55946
-0.664514,-0.347329,2.445,2.55739
-0.656578,-0.347329,2.445,2.55534
-0.653418,-0.349886,2.463,2.57211
-0.645424,-0.349886,2.463,2.57009
-0.637429,-0.349886,2.463,2.56809
-0.634035,-0.352443,2.481,2.58487
-0.625982,-0.352443,2.481,2.58291
-0.61793,-0.352443,2.481,2.58097
-0.614302,-0.355,2.499,2.59777
-0.606191,-0.355,2.499,2.59586
-0.598079,-0.355,2.499,2.59398
-0.589968,-0.355,2.499,2.59212
-0.581857,-0.355,2.499,2.59029
-0.573746,-0.355,2.499,2.58848
-0.565635,-0.355,2.499,2.58669
-0.557524,-0.355,2.499,2.58493
-0.549413,-0.355,2.499,2.58319
-0.541301,-0.355,2.499,2.58148
-0.537031,-0.357557,2.517,2.59837
-0.528861,-0.357557,2.517,2.5967
-0.516968,-0.355,2.499,2.57649
-0.508857,-0.355,2.499,2.57487
-0.504353,-0.357557,2.517,2.59182
-0.492635,-0.355,2.499,2.57171
-0.484524,-0.355,2.499,2.57017
-0.476412,-0.355,2.499,2.56866
-0.468301,-0.355,2.499,2.56716
-0.46019,-0.355,2.499,2.5657
-0.452079,-0.355,2.499,2.56425
-0.443968,-0.355,2.499,2.56284
-0.435857,-0.355,2.499,2.56144
-0.427746,-0.355,2.499,2.56008
-0.422657,-0.357557,2.517,2.57716
-0.411523,-0.355,2.499,2.55742
-0.403412,-0.355,2.499,2.55612
-0.395301,-0.355,2.499,2.55486
-0.38719,-0.355,2.499,2.55361
-0.379079,-0.355,2.499,2.5524
-0.370968,-0.355,2.499,2.5512
-0.36547,-0.357557,2.517,2.56841
-0.357301,-0.357557,2.517,2.56726
-0.349131,-0.357557,2.517,2.56613
-0.340961,-0.357557,2.517,2.56503
-0.332792,-0.357557,2.517,2.56396
-0.324622,-0.357557,2.517,2.56291
-0.316453,-0.357557,2.517,2.56189
-0.308283,-0.357557,2.517,2.56089
-0.300114,-0.357557,2.517,2.55992
-0.291944,-0.357557,2.517,2.55898
-0.283775,-0.357557,2.517,2.55806
-0.275605,-0.357557,2.517,2.55717
-0.267435,-0.357557,2.517,2.5563
-0.259266,-0.357557,2.517,2.55546
-0.251096,-0.357557,2.517,2.55464
-0.242927,-0.357557,2.517,2.55385
-0.234757,-0.357557,2.517,2.55309
-0.226588,-0.357557,2.517,2.55235
-0.218418,-0.357557,2.517,2.55164
-0.210249,-0.357557,2.517,2.55095
-0.203604,-0.360256,2.536,2.56954
-0.195373,-0.360256,2.536,2.5689
-0.187142,-0.360256,2.536,2.56829
-0.178911,-0.360256,2.536,2.5677
-0.170679,-0.360256,2.536,2.56714
-0.161231,-0.357557,2.517,2.54738
-0.153062,-0.357557,2.517,2.54687
-0.144892,-0.357557,2.517,2.5464
-0.136723,-0.357557,2.517,2.54594
-0.128553,-0.357557,2.517,2.54552
-0.120383,-0.357557,2.517,2.54512
-0.112214,-0.357557,2.517,2.54475
-0.104044,-0.357557,2.517,2.5444
-0.0958747,-0.357557,2.517,2.54408
-0.087078,-0.355,2.499,2.52559
-0.0789668,-0.355,2.499,2.52532
-0.0713661,-0.357557,2.517,2.54327
-0.0631965,-0.357557,2.517,2.54306
-0.0546334,-0.355,2.499,2.52468
-0.0465223,-0.355,2.499,2.52452
-0.0384112,-0.355,2.499,2.52438
-0.0305183,-0.357557,2.517,2.54245
-0.0223487,-0.357557,2.517,2.54237
-0.0141792,-0.357557,2.517,2.54231
-0.00600962,-0.357557,2.517,2.54228
0.00215994,-0.357557,2.517,2.54227
0.0103295,-0.357557,2.517,2.54229
0.0184991,-0.357557,2.517,2.54234
0.0268699,-0.360256,2.536,2.5616
0.0353641,-0.362956,2.555,2.58089
0.043657,-0.362956,2.555,2.58102
0.0519499,-0.362956,2.555,2.58117
