0.879874,-0.127031,2.481,2.63547
0.887927,-0.127031,2.481,2.63816
0.889479,-0.126109,2.463,2.62173
0.897474,-0.126109,2.463,2.62445
0.898851,-0.125188,2.445,2.60799
0.906787,-0.125188,2.445,2.61074
0.908362,-0.124317,2.428,2.59533
0.916243,-0.124317,2.428,2.5981
0.924124,-0.124317,2.428,2.60089
0.925479,-0.123447,2.411,2.58547
0.933304,-0.123447,2.411,2.58828
0.94113,-0.123447,2.411,2.59112
0.948955,-0.123447,2.411,2.59397
0.956781,-0.123447,2.411,2.59684
0.964606,-0.123447,2.411,2.59974
0.965575,-0.122576,2.394,2.5843
0.973346,-0.122576,2.394,2.58721
0.981116,-0.122576,2.394,2.59014
0.995908,-0.123447,2.411,2.61151
1.01789,-0.125188,2.445,2.65138
1.04093,-0.127031,2.481,2.69352
1.04898,-0.127031,2.481,2.69664
1.08047,-0.129847,2.536,2.75963
1.11317,-0.132766,2.593,2.82496
1.12158,-0.132766,2.593,2.82829
1.16574,-0.136964,2.675,2.92119
1.21217,-0.141367,2.761,3.01869
1.26183,-0.146078,2.853,3.123
1.27109,-0.146078,2.853,3.12676
1.31311,-0.149816,2.926,3.21063
1.35741,-0.153758,3.003,3.29912
1.36716,-0.153758,3.003,3.30314
1.38928,-0.155141,3.03,3.33693
1.42405,-0.157906,3.084,3.40058
1.44708,-0.159339,3.112,3.43569
1.45718,-0.159339,3.112,3.43996
1.46728,-0.159339,3.112,3.44425
1.47738,-0.159339,3.112,3.44856
1.48749,-0.159339,3.112,3.4529
1.49759,-0.159339,3.112,3.45727
1.52174,-0.160824,3.141,3.49391
1.51779,-0.159339,3.112,3.46607
1.52789,-0.159339,3.112,3.4705
1.53799,-0.159339,3.112,3.47496
1.53416,-0.157906,3.084,3.44814
1.53065,-0.156523,3.057,3.42237
1.54057,-0.156523,3.057,3.42682
1.5505,-0.156523,3.057,3.4313
1.56042,-0.156523,3.057,3.43579
1.59859,-0.159339,3.112,3.5022
1.63868,-0.162309,3.17,3.57219
1.64897,-0.162309,3.17,3.57692
1.67443,-0.163794,3.199,3.61444
1.70114,-0.165381,3.23,3.65433
1.71163,-0.165381,3.23,3.65922
1.73811,-0.166917,3.26,3.69817
1.78302,-0.170194,3.324,3.77586
1.82888,-0.173522,3.389,3.8549
1.83988,-0.173522,3.389,3.86013
1.85088,-0.173522,3.389,3.86539
1.88056,-0.175263,3.423,3.9095
1.87288,-0.173522,3.389,3.87597
1.88388,-0.173522,3.389,3.88129
1.89488,-0.173522,3.389,3.88665
1.90588,-0.173522,3.389,3.89202
1.91688,-0.173522,3.389,3.89742
1.92788,-0.173522,3.389,3.90284
1.93888,-0.173522,3.389,3.90829
1.9309,-0.171832,3.356,3.87564
1.92327,-0.170194,3.324,3.84408
1.93406,-0.170194,3.324,3.84949
1.94485,-0.170194,3.324,3.85492
1.91799,-0.166917,3.26,3.78604
1.92857,-0.166917,3.26,3.79142
1.9213,-0.165381,3.23,3.76187
1.91325,-0.163794,3.199,3.73108
1.92363,-0.163794,3.199,3.73641
1.93401,-0.163794,3.199,3.74177
1.89152,-0.159339,3.112,3.64524
1.90162,-0.159339,3.112,3.65049
1.87793,-0.156523,3.057,3.59115
1.85451,-0.153758,3.003,3.53282
1.86425,-0.153758,3.003,3.53795
1.85777,-0.152427,2.977,3.51242
1.85113,-0.151096,2.951,3.48682
1.86071,-0.151096,2.951,3.49191
1.8386,-0.148536,2.901,3.43777
1.81743,-0.146078,2.853,3.38585
1.82669,-0.146078,2.853,3.39083
1.82051,-0.144849,2.829,3.36727
1.79994,-0.142494,2.783,3.31741
1.79467,-0.141367,2.761,3.29605
1.80364,-0.141367,2.761,3.30094
1.78371,-0.139115,2.717,3.25316
1.76482,-0.136964,2.675,3.20764
1.7735,-0.136964,2.675,3.21243
1.76819,-0.135889,2.654,3.19197
1.74936,-0.13379,2.613,3.14737
1.75784,-0.13379,2.613,3.15209
1.7528,-0.132766,2.593,3.13267
1.73541,-0.13082,2.555,3.0914
-2.06524,-0.142767,2.977,3.62604
-2.03763,-0.14152,2.951,3.58892
-2.02805,-0.14152,2.951,3.58349
-1.98427,-0.139122,2.901,3.51745
-1.95852,-0.137971,2.877,3.4831
-1.94918,-0.137971,2.877,3.47785
-1.90748,-0.135669,2.829,3.41469
-1.88286,-0.134567,2.806,3.38185
-1.87375,-0.134567,2.806,3.37679
-1.84936,-0.133464,2.783,3.34411
-1.81123,-0.131353,2.739,3.28633
-1.80234,-0.131353,2.739,3.28143
-1.79345,-0.131353,2.739,3.27656
-1.78456,-0.131353,2.739,3.2717
-1.77567,-0.131353,2.739,3.26686
-1.76678,-0.131353,2.739,3.26204
-1.75789,-0.131353,2.739,3.25723
-1.76305,-0.132408,2.761,3.27857
-1.76807,-0.133464,2.783,3.29984
-1.75903,-0.133464,2.783,3.29501
-1.75,-0.133464,2.783,3.2902
-1.75535,-0.134567,2.806,3.31255
-1.74625,-0.134567,2.806,3.30774
-1.76624,-0.13682,2.853,3.35826
-1.75698,-0.13682,2.853,3.3534
-1.76242,-0.137971,2.877,3.37673
-1.75308,-0.137971,2.877,3.37186
-1.74374,-0.137971,2.877,3.36702
-1.7344,-0.137971,2.877,3.36219
-1.71068,-0.13682,2.853,3.32938
-1.70142,-0.13682,2.853,3.32463
-1.69216,-0.13682,2.853,3.3199
-1.6829,-0.13682,2.853,3.31519
-1.67364,-0.13682,2.853,3.3105
-1.65037,-0.135669,2.829,3.27801
-1.64119,-0.135669,2.829,3.2734
-1.63201,-0.135669,2.829,3.26881
nan,nan,nan,NaN
nan,nan,nan,NaN
nan,nan,nan,NaN
nan,nan,nan,NaN
nan,nan,nan,NaN
nan,nan,nan,NaN
nan,nan,nan,NaN
nan,nan,nan,NaN
nan,nan,nan,NaN
nan,nan,nan,NaN
nan,nan,nan,NaN
nan,nan,nan,NaN
nan,nan,nan,NaN
nan,nan,nan,NaN
nan,nan,nan,NaN
nan,nan,nan,NaN
nan,nan,nan,NaN
nan,nan,nan,NaN
nan,nan,nan,NaN
nan,nan,nan,NaN
nan,nan,nan,NaN
nan,nan,nan,NaN
nan,nan,nan,NaN
-1.23799,-0.118981,2.481,2.77527
-1.22994,-0.118981,2.481,2.77169
-1.20415,-0.117254,2.445,2.72796
-1.1879,-0.116439,2.428,2.70552
-1.18002,-0.116439,2.428,2.70207
-1.16393,-0.115624,2.411,2.67974
-1.15611,-0.115624,2.411,2.67635
-1.14828,-0.115624,2.411,2.67298
-1.14046,-0.115624,2.411,2.66963
-1.13263,-0.115624,2.411,2.6663
-1.1248,-0.115624,2.411,2.66298
-1.11698,-0.115624,2.411,2.65969
-1.10133,-0.114808,2.394,2.63768
-1.09356,-0.114808,2.394,2.63444
-1.08579,-0.114808,2.394,2.63123
-1.07802,-0.114808,2.394,2.62803
-1.07025,-0.114808,2.394,2.62485
-1.06248,-0.114808,2.394,2.62169
-1.05471,-0.114808,2.394,2.61856
-1.03951,-0.113993,2.377,2.59686
-1.03179,-0.113993,2.377,2.59378
-1.02408,-0.113993,2.377,2.59072
-1.01636,-0.113993,2.377,2.58768
-1.00865,-0.113993,2.377,2.58466
-1.00809,-0.114808,2.394,2.60013
-1.00032,-0.114808,2.394,2.59712
-0.992548,-0.114808,2.394,2.59414
-0.984778,-0.114808,2.394,2.59118
-0.977007,-0.114808,2.394,2.58823
-0.969237,-0.114808,2.394,2.58531
-0.961466,-0.114808,2.394,2.58241
-0.953696,-0.114808,2.394,2.57953
-0.945926,-0.114808,2.394,2.57666
-0.938156,-0.114808,2.394,2.57382
-0.930385,-0.114808,2.394,2.571
-0.922615,-0.114808,2.394,2.5682
-0.914845,-0.114808,2.394,2.56542
-0.907074,-0.114808,2.394,2.56266
-0.899304,-0.114808,2.394,2.55992
-0.891534,-0.114808,2.394,2.5572
-0.883763,-0.114808,2.394,2.5545
-0.875993,-0.114808,2.394,2.55182
-0.868223,-0.114808,2.394,2.54916
-0.866562,-0.115624,2.411,2.56461
-0.852682,-0.114808,2.394,2.54391
-0.844912,-0.114808,2.394,2.54132
-0.843086,-0.115624,2.411,2.55677
-0.83526,-0.115624,2.411,2.5542
-0.821601,-0.114808,2.394,2.53366
-0.81383,-0.114808,2.394,2.53115
-0.80606,-0.114808,2.394,2.52867
-0.79829,-0.114808,2.394,2.5262
-0.796133,-0.115624,2.411,2.54168
-0.788307,-0.115624,2.411,2.53924
-0.780482,-0.115624,2.411,2.53682
-0.772656,-0.115624,2.411,2.53442
-0.764831,-0.115624,2.411,2.53205
-0.757005,-0.115624,2.411,2.52969
-0.74918,-0.115624,2.411,2.52736
-0.741354,-0.115624,2.411,2.52505
-0.733529,-0.115624,2.411,2.52277
-0.725703,-0.115624,2.411,2.5205
-0.717878,-0.115624,2.411,2.51826
-0.715059,-0.116439,2.428,2.53378
-0.702227,-0.115624,2.411,2.51384
-0.694401,-0.115624,2.411,2.51167
-0.691417,-0.116439,2.428,2.52721
-0.683536,-0.116439,2.428,2.52507
-0.675655,-0.116439,2.428,2.52295
-0.667775,-0.116439,2.428,2.52085
-0.664514,-0.117254,2.445,2.53641
-0.656578,-0.117254,2.445,2.53434
-0.648643,-0.117254,2.445,2.53229
-0.640707,-0.117254,2.445,2.53027
-0.632771,-0.117254,2.445,2.52827
-0.624835,-0.117254,2.445,2.5263
-0.621441,-0.118117,2.463,2.54293
-0.613446,-0.118117,2.463,2.54099
-0.605452,-0.118117,2.463,2.53907
-0.597458,-0.118117,2.463,2.53718
-0.593771,-0.118981,2.481,2.55384
-0.585719,-0.118981,2.481,2.55198
-0.577666,-0.118981,2.481,2.55014
-0.569613,-0.118981,2.481,2.54833
-0.561561,-0.118981,2.481,2.54654
-0.553508,-0.118981,2.481,2.54478
-0.549413,-0.119844,2.499,2.56149
-0.541301,-0.119844,2.499,2.55976
-0.53319,-0.119844,2.499,2.55806
-0.528861,-0.120707,2.517,2.57479
-0.520692,-0.120707,2.517,2.57313
-0.512522,-0.120707,2.517,2.57149
-0.504353,-0.120707,2.517,2.56987
-0.496183,-0.120707,2.517,2.56828
-0.488013,-0.120707,2.517,2.56671
-0.479844,-0.120707,2.517,2.56517
-0.475235,-0.121618,2.536,2.58301
-0.467004,-0.121618,2.536,2.58151
-0.458772,-0.121618,2.536,2.58003
-0.450541,-0.121618,2.536,2.57858
-0.44231,-0.121618,2.536,2.57715
-0.434079,-0.121618,2.536,2.57575
-0.429038,-0.122529,2.555,2.59367
-0.423874,-0.123441,2.574,2.61159
-0.415519,-0.123441,2.574,2.61024
-0.407165,-0.123441,2.574,2.60893
-0.39881,-0.123441,2.574,2.60764
-0.390456,-0.123441,2.574,2.60637
-0.382101,-0.123441,2.574,2.60513
-0.376505,-0.124352,2.593,2.62314
-0.368089,-0.124352,2.593,2.62195
-0.359673,-0.124352,2.593,2.62078
-0.351257,-0.124352,2.593,2.61964
-0.34284,-0.124352,2.593,2.61852
-0.331974,-0.123441,2.574,2.59825
-0.323619,-0.123441,2.574,2.5972
-0.315265,-0.123441,2.574,2.59617
-0.30691,-0.123441,2.574,2.59517
-0.296352,-0.122529,2.555,2.57505
-0.288059,-0.122529,2.555,2.57411
-0.279766,-0.122529,2.555,2.57319
-0.271473,-0.122529,2.555,2.5723
-0.261223,-0.121618,2.536,2.55232
-0.252992,-0.121618,2.536,2.55149
-0.244761,-0.121618,2.536,2.55069
-0.236529,-0.121618,2.536,2.54991
-0.228298,-0.121618,2.536,2.54916
-0.220067,-0.121618,2.536,2.54843
-0.211836,-0.121618,2.536,2.54774
-0.203604,-0.121618,2.536,2.54707
-0.195373,-0.121618,2.536,2.54642
-0.18574,-0.120707,2.517,2.52673
-0.17757,-0.120707,2.517,2.52614
-0.169401,-0.120707,2.517,2.52558
-0.161231,-0.120707,2.517,2.52505
-0.154217,-0.121618,2.536,2.54359
-0.145986,-0.121618,2.536,2.54311
-0.136723,-0.120707,2.517,2.5236
-0.128553,-0.120707,2.517,2.52317
-0.121292,-0.121618,2.536,2.54181
-0.113061,-0.121618,2.536,2.54143
-0.105615,-0.122529,2.555,2.56012
-0.0973222,-0.122529,2.555,2.55979
-0.0890293,-0.122529,2.555,2.55949
-0.0807364,-0.122529,2.555,2.55921
-0.0724435,-0.122529,2.555,2.55896
-0.0646277,-0.123441,2.574,2.57777
-0.0562731,-0.123441,2.574,2.57757
-0.0479185,-0.123441,2.574,2.5774
-0.039856,-0.124352,2.593,2.59629
-0.0314398,-0.124352,2.593,2.59617
-0.0232011,-0.125311,2.613,2.61611
-0.01472,-0.125311,2.613,2.61604
-0.00623883,-0.125311,2.613,2.61601
0.00224232,-0.125311,2.613,2.616
0.0107235,-0.125311,2.613,2.61603
0.0192046,-0.125311,2.613,2.61607
0.0274739,-0.124352,2.593,2.59613
0.0358901,-0.124352,2.593,2.59623
0.0443063,-0.124352,2.593,2.59636
0.0523362,-0.123441,2.574,2.57749
0.0606908,-0.123441,2.574,2.57767
0.0690454,-0.123441,2.574,2.57788
0.0773999,-0.123441,2.574,2.57812
0.0857545,-0.123441,2.574,2.57838
0.0941091,-0.123441,2.574,2.57868
0.102464,-0.123441,2.574,2.57899
0.110818,-0.123441,2.574,2.57934
0.119173,-0.123441,2.574,2.57971
0.128469,-0.124352,2.593,2.59916
0.136885,-0.124352,2.593,2.59959
0.145301,-0.124352,2.593,2.60004
0.153717,-0.124352,2.593,2.60053
0.162134,-0.124352,2.593,2.60104
0.17055,-0.124352,2.593,2.60158
0.178966,-0.124352,2.593,2.60214
0.187382,-0.124352,2.593,2.60273
0.197309,-0.125311,2.613,2.62343
0.20579,-0.125311,2.613,2.62408
0.214271,-0.125311,2.613,2.62476
0.222752,-0.125311,2.613,2.62547
0.229463,-0.124352,2.593,2.6061
0.23788,-0.124352,2.593,2.60686
0.246296,-0.124352,2.593,2.60764
0.254712,-0.124352,2.593,2.60845
0.263128,-0.124352,2.593,2.60928
0.271545,-0.124352,2.593,2.61014
0.27791,-0.123441,2.574,2.5919
0.286264,-0.123441,2.574,2.59281
0.294619,-0.123441,2.574,2.59375
0.302973,-0.123441,2.574,2.59471
0.311328,-0.123441,2.574,2.5957
0.319682,-0.123441,2.574,2.59671
0.325615,-0.122529,2.555,2.57858
0.333908,-0.122529,2.555,2.57964
0.342201,-0.122529,2.555,2.58072
0.350494,-0.122529,2.555,2.58184
0.356119,-0.121618,2.536,2.56377
0.36435,-0.121618,2.536,2.56492
0.372581,-0.121618,2.536,2.56611
0.380813,-0.121618,2.536,2.56731
0.389044,-0.121618,2.536,2.56855
0.397275,-0.121618,2.536,2.56981
0.402468,-0.120707,2.517,2.55183
0.410638,-0.120707,2.517,2.55313
0.418807,-0.120707,2.517,2.55446
0.423923,-0.119844,2.499,2.53753
0.432035,-0.119844,2.499,2.5389
0.440146,-0.119844,2.499,2.54029
0.445028,-0.118981,2.481,2.5234
0.453081,-0.118981,2.481,2.52484
0.461134,-0.118981,2.481,2.52629
0.469186,-0.118981,2.481,2.52778
0.477239,-0.118981,2.481,2.52928
0.485292,-0.118981,2.481,2.53082
0.493344,-0.118981,2.481,2.53237
0.501397,-0.118981,2.481,2.53395
0.50945,-0.118981,2.481,2.53556
0.521257,-0.119844,2.499,2.5556
0.529368,-0.119844,2.499,2.55726
0.537479,-0.119844,2.499,2.55895
0.553668,-0.121618,2.536,2.59858
0.5619,-0.121618,2.536,2.60035
0.570131,-0.121618,2.536,2.60214
0.578362,-0.121618,2.536,2.60396
0.586593,-0.121618,2.536,2.6058
0.594824,-0.121618,2.536,2.60766
0.607574,-0.122529,2.555,2.6291
0.615867,-0.122529,2.555,2.63103
0.62416,-0.122529,2.555,2.63299
0.632453,-0.122529,2.555,2.63496
0.640746,-0.122529,2.555,2.63697
0.649038,-0.122529,2.555,2.63899
0.657331,-0.122529,2.555,2.64105
0.665624,-0.122529,2.555,2.64312
0.673917,-0.122529,2.555,2.64522
0.677137,-0.121618,2.536,2.62766
0.685368,-0.121618,2.536,2.62979
0.693599,-0.121618,2.536,2.63195
0.70183,-0.121618,2.536,2.63413
0.710062,-0.121618,2.536,2.63634
0.718293,-0.121618,2.536,2.63857
0.726524,-0.121618,2.536,2.64082
0.729251,-0.120707,2.517,2.62329
0.73742,-0.120707,2.517,2.62558
0.74559,-0.120707,2.517,2.62788
0.753759,-0.120707,2.517,2.63021
0.761929,-0.120707,2.517,2.63256
0.770098,-0.120707,2.517,2.63494
0.778268,-0.120707,2.517,2.63734
0.792374,-0.121618,2.536,2.65969
0.800605,-0.121618,2.536,2.66215
0.808836,-0.121618,2.536,2.66464
0.817068,-0.121618,2.536,2.66715
0.831482,-0.122529,2.555,2.68968
0.83353,-0.121618,2.536,2.67224
0.841761,-0.121618,2.536,2.67482
0.849993,-0.121618,2.536,2.67742
0.858224,-0.121618,2.536,2.68004
0.859963,-0.120707,2.517,2.66259
0.868133,-0.120707,2.517,2.66524
0.876303,-0.120707,2.517,2.66791
0.878147,-0.119844,2.499,2.65151
0.886258,-0.119844,2.499,2.65421
0.887927,-0.118981,2.481,2.63779
0.889479,-0.118117,2.463,2.62135
0.897474,-0.118117,2.463,2.62408
0.905468,-0.118117,2.463,2.62682
0.906787,-0.117254,2.445,2.61037
0.908362,-0.116439,2.428,2.59497
0.916243,-0.116439,2.428,2.59774
0.924124,-0.116439,2.428,2.60053
0.932004,-0.116439,2.428,2.60334
0.939885,-0.116439,2.428,2.60617
0.94113,-0.115624,2.411,2.59076
0.948955,-0.115624,2.411,2.59361
0.963527,-0.116439,2.428,2.61479
0.964606,-0.115624,2.411,2.59938
0.972432,-0.115624,2.411,2.60229
0.987169,-0.116439,2.428,2.62359
0.99505,-0.116439,2.428,2.62657
1.00293,-0.116439,2.428,2.62957
1.02538,-0.118117,2.463,2.67053
1.04848,-0.119844,2.499,2.71269
1.05659,-0.119844,2.499,2.71583
1.08047,-0.121618,2.536,2.75926
1.11317,-0.124352,2.593,2.82458
1.12158,-0.124352,2.593,2.82791
1.16574,-0.128284,2.675,2.92079
1.21217,-0.132408,2.761,3.01828
1.26183,-0.13682,2.853,3.12258
1.27109,-0.13682,2.853,3.12634
1.31311,-0.140321,2.926,3.2102
1.35741,-0.144014,3.003,3.29868
1.36716,-0.144014,3.003,3.30271
1.38928,-0.145309,3.03,3.33648
1.42405,-0.147898,3.084,3.40013
1.44708,-0.149241,3.112,3.43524
1.45718,-0.149241,3.112,3.43951
1.46728,-0.149241,3.112,3.4438
1.47738,-0.149241,3.112,3.44811
1.48749,-0.149241,3.112,3.45245
1.49759,-0.149241,3.112,3.45682
1.52174,-0.150632,3.141,3.49346
1.51779,-0.149241,3.112,3.46562
1.52789,-0.149241,3.112,3.47005
1.53799,-0.149241,3.112,3.47451
1.53416,-0.147898,3.084,3.44769
1.53065,-0.146604,3.057,3.42193
1.54057,-0.146604,3.057,3.42638
1.5505,-0.146604,3.057,3.43086
1.56042,-0.146604,3.057,3.43535
1.59859,-0.149241,3.112,3.50176
1.63868,-0.152023,3.17,3.57173
1.64897,-0.152023,3.17,3.57646
1.67443,-0.153413,3.199,3.61398
1.70114,-0.1549,3.23,3.65387
1.71163,-0.1549,3.23,3.65877
1.73811,-0.156339,3.26,3.69771
1.78302,-0.159408,3.324,3.77539
1.81108,-0.160943,3.356,3.81689
1.82197,-0.160943,3.356,3.82207
1.83286,-0.160943,3.356,3.82727
1.86188,-0.162525,3.389,3.87019
1.85465,-0.160943,3.356,3.83775
1.86554,-0.160943,3.356,3.84303
1.87643,-0.160943,3.356,3.84833
1.88732,-0.160943,3.356,3.85365
1.89822,-0.160943,3.356,3.859
1.90911,-0.160943,3.356,3.86437
1.92,-0.160943,3.356,3.86976
1.91248,-0.159408,3.324,3.83823
1.90476,-0.157873,3.292,3.80661
1.91544,-0.157873,3.292,3.81197
1.9074,-0.156339,3.26,3.78024
1.90034,-0.1549,3.23,3.75076
1.91082,-0.1549,3.23,3.75608
1.90286,-0.153413,3.199,3.72532
1.8959,-0.152023,3.17,3.69682
1.90619,-0.152023,3.17,3.7021
1.88142,-0.149241,3.112,3.63958
1.85809,-0.146604,3.057,3.5804
1.86801,-0.146604,3.057,3.58555
1.86134,-0.145309,3.03,3.55902
1.83845,-0.142767,2.977,3.50183
1.84811,-0.142767,2.977,3.50691
1.84155,-0.14152,2.951,3.48134
1.83545,-0.140321,2.926,3.45688
1.84494,-0.140321,2.926,3.46193
1.8386,-0.139122,2.901,3.43738
1.81743,-0.13682,2.853,3.38547
1.82669,-0.13682,2.853,3.39045
1.82051,-0.135669,2.829,3.36688
1.79994,-0.133464,2.783,3.31703
1.78037,-0.131353,2.739,3.26942
1.78926,-0.131353,2.739,3.27427
1.78371,-0.130298,2.717,3.2528
1.76482,-0.128284,2.675,3.20728
1.7735,-0.128284,2.675,3.21207
1.7542,-0.12627,2.633,3.16636
1.74936,-0.125311,2.613,3.14702
1.75784,-0.125311,2.613,3.15174
1.73996,-0.123441,2.574,3.10937
1.73541,-0.122529,2.555,3.09106
-2.02986,-0.130827,2.926,3.56356
-2.0031,-0.129709,2.901,3.52775
-1.99369,-0.129709,2.901,3.52242
-1.96786,-0.128636,2.877,3.488
-1.94218,-0.127563,2.853,3.45369
-1.93292,-0.127563,2.853,3.44849
-1.90748,-0.12649,2.829,3.41434
-1.86743,-0.124433,2.783,3.35378
-1.85839,-0.124433,2.783,3.34876
-1.84936,-0.124433,2.783,3.34376
-1.81123,-0.122466,2.739,3.28598
-1.80234,-0.122466,2.739,3.28109
-1.79345,-0.122466,2.739,3.27622
-1.77023,-0.121482,2.717,3.24508
-1.76141,-0.121482,2.717,3.24028
-1.76678,-0.122466,2.739,3.26169
-1.75789,-0.122466,2.739,3.25689
-1.7771,-0.124433,2.783,3.30434
-1.76807,-0.124433,2.783,3.29949
-1.75903,-0.124433,2.783,3.29466
-1.75,-0.124433,2.783,3.28984
-1.75535,-0.125461,2.806,3.3122
-1.74625,-0.125461,2.806,3.30738
-1.75138,-0.12649,2.829,3.32965
-1.75698,-0.127563,2.853,3.35304
-1.74772,-0.127563,2.853,3.34819
-1.73846,-0.127563,2.853,3.34337
-1.7292,-0.127563,2.853,3.33856
-1.71994,-0.127563,2.853,3.33378
-1.71068,-0.127563,2.853,3.32901
-1.70142,-0.127563,2.853,3.32426
-1.69216,-0.127563,2.853,3.31953
-1.66874,-0.12649,2.829,3.28693
-1.65956,-0.12649,2.829,3.28228
-1.65037,-0.12649,2.829,3.27765
-1.64119,-0.12649,2.829,3.27303
-1.63201,-0.12649,2.829,3.26844
nan,nan,nan,NaN
nan,nan,nan,NaN
nan,nan,nan,NaN
nan,nan,nan,NaN
nan,nan,nan,NaN
nan,nan,nan,NaN
nan,nan,nan,NaN
nan,nan,nan,NaN
nan,nan,nan,NaN
nan,nan,nan,NaN
nan,nan,nan,NaN
nan,nan,nan,NaN
nan,nan,nan,NaN
nan,nan,nan,NaN
nan,nan,nan,NaN
nan,nan,nan,NaN
nan,nan,nan,NaN
nan,nan,nan,NaN
nan,nan,nan,NaN
nan,nan,nan,NaN
nan,nan,nan,NaN
nan,nan,nan,NaN
nan,nan,nan,NaN
-1.23799,-0.11093,2.481,2.77494
-1.22994,-0.11093,2.481,2.77136
-1.20415,-0.109321,2.445,2.72763
-1.1879,-0.10856,2.428,2.70519
-1.18002,-0.10856,2.428,2.70174
-1.17214,-0.10856,2.428,2.69831
-1.16426,-0.10856,2.428,2.6949
-1.15638,-0.10856,2.428,2.6915
-1.1485,-0.10856,2.428,2.68812
-1.13263,-0.1078,2.411,2.66597
-1.1248,-0.1078,2.411,2.66265
-1.11698,-0.1078,2.411,2.65936
-1.10133,-0.10704,2.394,2.63735
-1.09356,-0.10704,2.394,2.63412
-1.08579,-0.10704,2.394,2.6309
-1.07802,-0.10704,2.394,2.6277
-1.07025,-0.10704,2.394,2.62453
-1.06248,-0.10704,2.394,2.62137
-1.05471,-0.10704,2.394,2.61823
-1.04694,-0.10704,2.394,2.61511
-1.03917,-0.10704,2.394,2.612
-1.0314,-0.10704,2.394,2.60892
-1.02363,-0.10704,2.394,2.60586
-1.01586,-0.10704,2.394,2.60282
-1.00809,-0.10704,2.394,2.5998
-1.00032,-0.10704,2.394,2.59679
-0.992548,-0.10704,2.394,2.59381
-0.984778,-0.10704,2.394,2.59085
-0.977007,-0.10704,2.394,2.5879
-0.969237,-0.10704,2.394,2.58498
-0.961466,-0.10704,2.394,2.58208
-0.953696,-0.10704,2.394,2.57919
-0.945926,-0.10704,2.394,2.57633
-0.938156,-0.10704,2.394,2.57349
-0.930385,-0.10704,2.394,2.57066
-0.922615,-0.10704,2.394,2.56786
-0.914845,-0.10704,2.394,2.56508
-0.907074,-0.10704,2.394,2.56232
-0.899304,-0.10704,2.394,2.55958
-0.891534,-0.10704,2.394,2.55686
-0.883763,-0.10704,2.394,2.55416
-0.875993,-0.10704,2.394,2.55148
-0.868223,-0.10704,2.394,2.54882
-0.866562,-0.1078,2.411,2.56427
-0.858737,-0.1078,2.411,2.56163
-0.850911,-0.1078,2.411,2.55902
-0.843086,-0.1078,2.411,2.55643
-0.83526,-0.1078,2.411,2.55386
-0.821601,-0.10704,2.394,2.53332
-0.81383,-0.10704,2.394,2.53081
-0.80606,-0.10704,2.394,2.52832
-0.79829,-0.10704,2.394,2.52586
-0.796133,-0.1078,2.411,2.54133
-0.788307,-0.1078,2.411,2.53889
-0.780482,-0.1078,2.411,2.53647
-0.772656,-0.1078,2.411,2.53408
-0.764831,-0.1078,2.411,2.5317
-0.757005,-0.1078,2.411,2.52935
-0.74918,-0.1078,2.411,2.52702
-0.741354,-0.1078,2.411,2.52471
-0.733529,-0.1078,2.411,2.52242
-0.725703,-0.1078,2.411,2.52016
-0.717878,-0.1078,2.411,2.51791
-0.715059,-0.10856,2.428,2.53343
-0.707178,-0.10856,2.428,2.53122
-0.699297,-0.10856,2.428,2.52903
-0.691417,-0.10856,2.428,2.52686
-0.683536,-0.10856,2.428,2.52472
-0.675655,-0.10856,2.428,2.52259
-0.667775,-0.10856,2.428,2.52049
-0.664514,-0.109321,2.445,2.53605
-0.656578,-0.109321,2.445,2.53398
-0.648643,-0.109321,2.445,2.53194
-0.640707,-0.109321,2.445,2.52992
-0.632771,-0.109321,2.445,2.52792
-0.624835,-0.109321,2.445,2.52594
-0.621441,-0.110125,2.463,2.54257
-0.613446,-0.110125,2.463,2.54063
-0.605452,-0.110125,2.463,2.53871
-0.597458,-0.110125,2.463,2.53682
-0.593771,-0.11093,2.481,2.55347
-0.585719,-0.11093,2.481,2.55161
-0.577666,-0.11093,2.481,2.54978
-0.569613,-0.11093,2.481,2.54797
-0.561561,-0.11093,2.481,2.54618
-0.553508,-0.11093,2.481,2.54441
-0.549413,-0.111735,2.499,2.56112
-0.541301,-0.111735,2.499,2.55939
-0.53319,-0.111735,2.499,2.55769
-0.528861,-0.11254,2.517,2.57442
-0.520692,-0.11254,2.517,2.57276
-0.512522,-0.11254,2.517,2.57112
-0.504353,-0.11254,2.517,2.5695
-0.496183,-0.11254,2.517,2.56791
-0.488013,-0.11254,2.517,2.56634
-0.479844,-0.11254,2.517,2.5648
-0.475235,-0.113389,2.536,2.58263
-0.467004,-0.113389,2.536,2.58113
-0.458772,-0.113389,2.536,2.57966
-0.450541,-0.113389,2.536,2.5782
-0.44231,-0.113389,2.536,2.57678
-0.434079,-0.113389,2.536,2.57538
-0.429038,-0.114239,2.555,2.59329
-0.420745,-0.114239,2.555,2.59193
-0.412452,-0.114239,2.555,2.5906
-0.407165,-0.115088,2.574,2.60854
-0.39881,-0.115088,2.574,2.60725
-0.390456,-0.115088,2.574,2.60599
-0.382101,-0.115088,2.574,2.60475
-0.376505,-0.115938,2.593,2.62276
-0.368089,-0.115938,2.593,2.62156
-0.359673,-0.115938,2.593,2.62039
-0.351257,-0.115938,2.593,2.61925
-0.34284,-0.115938,2.593,2.61813
-0.331974,-0.115088,2.574,2.59787
-0.323619,-0.115088,2.574,2.59682
-0.315265,-0.115088,2.574,2.59579
-0.30691,-0.115088,2.574,2.59479
-0.296352,-0.114239,2.555,2.57467
-0.288059,-0.114239,2.555,2.57372
-0.279766,-0.114239,2.555,2.57281
-0.269454,-0.113389,2.536,2.55279
-0.261223,-0.113389,2.536,2.55194
-0.252992,-0.113389,2.536,2.55111
-0.244761,-0.113389,2.536,2.55031
-0.236529,-0.113389,2.536,2.54953
-0.228298,-0.113389,2.536,2.54878
-0.220067,-0.113389,2.536,2.54805
-0.210249,-0.11254,2.517,2.52827
-0.202079,-0.11254,2.517,2.52761
-0.193909,-0.11254,2.517,2.52697
-0.18574,-0.11254,2.517,2.52635
-0.17757,-0.11254,2.517,2.52576
-0.169401,-0.11254,2.517,2.5252
-0.161231,-0.11254,2.517,2.52467
-0.153062,-0.11254,2.517,2.52416
-0.144892,-0.11254,2.517,2.52368
-0.136723,-0.11254,2.517,2.52322
-0.128553,-0.11254,2.517,2.52279
-0.120383,-0.11254,2.517,2.52239
-0.112214,-0.11254,2.517,2.52201
-0.10483,-0.113389,2.536,2.5407
-0.0973222,-0.114239,2.555,2.5594
-0.0890293,-0.114239,2.555,2.5591
-0.0807364,-0.114239,2.555,2.55883
-0.0724435,-0.114239,2.555,2.55858
-0.0646277,-0.115088,2.574,2.57738
-0.0562731,-0.115088,2.574,2.57719
-0.0479185,-0.115088,2.574,2.57702
-0.039856,-0.115938,2.593,2.5959
-0.0314398,-0.115938,2.593,2.59578
-0.0232011,-0.116832,2.613,2.61571
-0.01472,-0.116832,2.613,2.61565
-0.00623883,-0.116832,2.613,2.61562
0.00224232,-0.116832,2.613,2.61561
0.0107235,-0.116832,2.613,2.61563
0.0192046,-0.116832,2.613,2.61568
0.0276858,-0.116832,2.613,2.61576
0.0358901,-0.115938,2.593,2.59584
0.0443063,-0.115938,2.593,2.59597
0.0527226,-0.115938,2.593,2.59613
0.0606908,-0.115088,2.574,2.57729
0.0690454,-0.115088,2.574,2.5775
0.0773999,-0.115088,2.574,2.57773
0.0857545,-0.115088,2.574,2.578
0.0941091,-0.115088,2.574,2.57829
0.102464,-0.115088,2.574,2.57861
0.110818,-0.115088,2.574,2.57895
0.119173,-0.115088,2.574,2.57933
0.127527,-0.115088,2.574,2.57973
0.135882,-0.115088,2.574,2.58015
0.144236,-0.115088,2.574,2.58061
0.152591,-0.115088,2.574,2.58109
0.160946,-0.115088,2.574,2.58159
0.17055,-0.115938,2.593,2.60119
0.178966,-0.115938,2.593,2.60175
0.187382,-0.115938,2.593,2.60235
0.195799,-0.115938,2.593,2.60297
0.20579,-0.116832,2.613,2.62369
0.214271,-0.116832,2.613,2.62437
0.221047,-0.115938,2.593,2.60499
0.229463,-0.115938,2.593,2.60571
0.23788,-0.115938,2.593,2.60647
0.246296,-0.115938,2.593,2.60725
0.254712,-0.115938,2.593,2.60806
0.263128,-0.115938,2.593,2.60889
0.269555,-0.115088,2.574,2.59063
0.27791,-0.115088,2.574,2.59152
0.286264,-0.115088,2.574,2.59243
0.294619,-0.115088,2.574,2.59336
0.302973,-0.115088,2.574,2.59432
0.311328,-0.115088,2.574,2.59531
0.319682,-0.115088,2.574,2.59633
0.325615,-0.114239,2.555,2.5782
0.333908,-0.114239,2.555,2.57926
0.342201,-0.114239,2.555,2.58034
0.347888,-0.113389,2.536,2.56226
0.356119,-0.113389,2.536,2.56339
0.36435,-0.113389,2.536,2.56455
0.372581,-0.113389,2.536,2.56573
0.380813,-0.113389,2.536,2.56694
0.389044,-0.113389,2.536,2.56817
0.397275,-0.113389,2.536,2.56943
0.402468,-0.11254,2.517,2.55146
0.410638,-0.11254,2.517,2.55276
0.418807,-0.11254,2.517,2.55409
0.423923,-0.111735,2.499,2.53716
0.432035,-0.111735,2.499,2.53853
0.440146,-0.111735,2.499,2.53992
0.445028,-0.11093,2.481,2.52304
0.453081,-0.11093,2.481,2.52447
0.461134,-0.11093,2.481,2.52593
0.469186,-0.11093,2.481,2.52741
0.477239,-0.11093,2.481,2.52892
0.485292,-0.11093,2.481,2.53045
0.493344,-0.11093,2.481,2.53201
0.501397,-0.11093,2.481,2.53359
0.50945,-0.11093,2.481,2.53519
0.521257,-0.111735,2.499,2.55523
0.529368,-0.111735,2.499,2.5569
0.537479,-0.111735,2.499,2.55859
0.553668,-0.113389,2.536,2.59821
0.5619,-0.113389,2.536,2.59998
0.570131,-0.113389,2.536,2.60177
0.578362,-0.113389,2.536,2.60359
0.586593,-0.113389,2.536,2.60543
0.594824,-0.113389,2.536,2.60729
0.607574,-0.114239,2.555,2.62873
0.615867,-0.114239,2.555,2.63066
0.62416,-0.114239,2.555,2.63261
0.632453,-0.114239,2.555,2.63459
0.64551,-0.115088,2.574,2.6562
0.653865,-0.115088,2.574,2.65824
0.662219,-0.115088,2.574,2.66031
0.670574,-0.115088,2.574,2.6624
0.678929,-0.115088,2.574,2.66452
0.68221,-0.114239,2.555,2.64698
0.690503,-0.114239,2.555,2.64913
0.698796,-0.114239,2.555,2.6513
0.707089,-0.114239,2.555,2.6535
0.715382,-0.114239,2.555,2.65572
0.723674,-0.114239,2.555,2.65797
0.731967,-0.114239,2.555,2.66024
0.74026,-0.114239,2.555,2.66253
0.748553,-0.114239,2.555,2.66485
0.751218,-0.113389,2.536,2.64735
0.759449,-0.113389,2.536,2.6497
0.76768,-0.113389,2.536,2.65207
0.775912,-0.113389,2.536,2.65447
0.784143,-0.113389,2.536,2.65688
0.792374,-0.113389,2.536,2.65933
0.800605,-0.113389,2.536,2.66179
0.814896,-0.114239,2.555,2.68424
0.823189,-0.114239,2.555,2.68677
0.831482,-0.114239,2.555,2.68932
0.839775,-0.114239,2.555,2.69189
0.848068,-0.114239,2.555,2.69449
0.856361,-0.114239,2.555,2.69711
0.858224,-0.113389,2.536,2.67968
0.859963,-0.11254,2.517,2.66223
0.868133,-0.11254,2.517,2.66488
0.876303,-0.11254,2.517,2.66756
0.878147,-0.111735,2.499,2.65116
0.886258,-0.111735,2.499,2.65385
0.887927,-0.11093,2.481,2.63744
0.889479,-0.110125,2.463,2.62101
0.897474,-0.110125,2.463,2.62373
0.905468,-0.110125,2.463,2.62647
0.906787,-0.109321,2.445,2.61003
0.908362,-0.10856,2.428,2.59463
0.916243,-0.10856,2.428,2.5974
0.924124,-0.10856,2.428,2.60019
0.932004,-0.10856,2.428,2.603
0.939885,-0.10856,2.428,2.60583
0.94113,-0.1078,2.411,2.59042
0.948955,-0.1078,2.411,2.59327
0.963527,-0.10856,2.428,2.61445
0.964606,-0.1078,2.411,2.59904
0.972432,-0.1078,2.411,2.60195
0.987169,-0.10856,2.428,2.62326
0.99505,-0.10856,2.428,2.62623
1.00293,-0.10856,2.428,2.62923
1.02538,-0.110125,2.463,2.67019
1.04848,-0.111735,2.499,2.71234
1.05659,-0.111735,2.499,2.71549
1.08047,-0.113389,2.536,2.75891
1.11317,-0.115938,2.593,2.82422
1.12158,-0.115938,2.593,2.82755
1.16574,-0.119604,2.675,2.92042
1.21217,-0.123449,2.761,3.0179
1.25121,-0.12649,2.829,3.09593
1.26039,-0.12649,2.829,3.09965
1.29112,-0.128636,2.877,3.15605
1.3226,-0.130827,2.926,3.2137
1.3321,-0.130827,2.926,3.21762
1.3416,-0.130827,2.926,3.22156
1.37464,-0.133107,2.977,3.28175
1.38431,-0.133107,2.977,3.28581
1.3818,-0.131945,2.951,3.26116
1.39137,-0.131945,2.951,3.26523
1.40095,-0.131945,2.951,3.26932
1.39858,-0.130827,2.926,3.24571
1.40808,-0.130827,2.926,3.24981
1.41757,-0.130827,2.926,3.25394
1.42707,-0.130827,2.926,3.25809
1.44884,-0.131945,2.951,3.29013
1.45842,-0.131945,2.951,3.29436
1.468,-0.131945,2.951,3.29861
1.47758,-0.131945,2.951,3.30288
1.50026,-0.133107,2.977,3.33632
1.50992,-0.133107,2.977,3.34067
1.51958,-0.133107,2.977,3.34505
1.55647,-0.135477,3.03,3.40908
1.59422,-0.137891,3.084,3.47442
1.60423,-0.137891,3.084,3.47903
1.64408,-0.14044,3.141,3.54804
1.68482,-0.143033,3.199,3.61838
1.6952,-0.143033,3.199,3.62323
1.72211,-0.144419,3.23,3.66325
1.76585,-0.147191,3.292,3.7386
1.77654,-0.147191,3.292,3.74366
1.78722,-0.147191,3.292,3.74875
1.81538,-0.148622,3.324,3.79034
1.84375,-0.150053,3.356,3.83206
1.83696,-0.148622,3.324,3.80072
1.84775,-0.148622,3.324,3.80595
1.85854,-0.148622,3.324,3.8112
1.85133,-0.147191,3.292,3.77973
1.86202,-0.147191,3.292,3.78498
1.8727,-0.147191,3.292,3.79024
1.88339,-0.147191,3.292,3.79553
1.87566,-0.145761,3.26,3.7639
1.88624,-0.145761,3.26,3.76919
1.87937,-0.144419,3.23,3.73976
1.88985,-0.144419,3.23,3.74504
1.86504,-0.141737,3.17,3.68067
1.87532,-0.141737,3.17,3.6859
1.86836,-0.14044,3.141,3.65737
1.86121,-0.139143,3.112,3.62878
1.87131,-0.139143,3.112,3.63397
1.86449,-0.137891,3.084,3.60644
1.84168,-0.135477,3.03,3.54838
1.85151,-0.135477,3.03,3.5535
1.84476,-0.13427,3.003,3.52692
1.82239,-0.131945,2.951,3.47087
1.83197,-0.131945,2.951,3.47591
1.82595,-0.130827,2.926,3.45147
1.81976,-0.129709,2.901,3.42698
1.82918,-0.129709,2.901,3.43199
1.82338,-0.128636,2.877,3.40858
1.81743,-0.127563,2.853,3.38511
1.82669,-0.127563,2.853,3.39009
1.80571,-0.125461,2.806,3.33916
1.79994,-0.124433,2.783,3.31668
1.78037,-0.122466,2.739,3.26907
1.78926,-0.122466,2.739,3.27392
1.78371,-0.121482,2.717,3.25246
1.76482,-0.119604,2.675,3.20695
1.7735,-0.119604,2.675,3.21173
1.7542,-0.117726,2.633,3.16603
1.74936,-0.116832,2.613,3.14669
1.75784,-0.116832,2.613,3.15142
1.73996,-0.115088,2.574,3.10905
1.7225,-0.113389,2.536,3.06776
-2.02986,-0.121333,2.926,3.56322
-1.98653,-0.119301,2.877,3.49824
-1.97719,-0.119301,2.877,3.49294
-1.95144,-0.118305,2.853,3.45857
-1.94218,-0.118305,2.853,3.45336
-1.93292,-0.118305,2.853,3.44816
-1.89197,-0.116356,2.806,3.38625
-1.86743,-0.115403,2.783,3.35346
-1.85839,-0.115403,2.783,3.34844
-1.83474,-0.11449,2.761,3.317
-1.81123,-0.113578,2.739,3.28566
-1.80234,-0.113578,2.739,3.28077
-1.79345,-0.113578,2.739,3.2759
-1.77023,-0.112666,2.717,3.24476
-1.76141,-0.112666,2.717,3.23996
nan,nan,nan,NaN
nan,nan,nan,NaN
nan,nan,nan,NaN
nan,nan,nan,NaN
nan,nan,nan,NaN
-1.76446,-0.116356,2.806,3.3167
-1.75535,-0.116356,2.806,3.31186
-1.74625,-0.116356,2.806,3.30705
-1.75138,-0.11731,2.829,3.32931
-1.75698,-0.118305,2.853,3.3527
-1.74772,-0.118305,2.853,3.34785
-1.73846,-0.118305,2.853,3.34303
-1.7292,-0.118305,2.853,3.33822
-1.71994,-0.118305,2.853,3.33343
-1.71068,-0.118305,2.853,3.32867
-1.70142,-0.118305,2.853,3.32392
-1.69216,-0.118305,2.853,3.31919
-1.66874,-0.11731,2.829,3.28659
-1.65956,-0.11731,2.829,3.28194
-1.65037,-0.11731,2.829,3.27731
-1.64119,-0.11731,2.829,3.27269
-1.63201,-0.11731,2.829,3.2681
nan,nan,nan,NaN
nan,nan,nan,NaN
nan,nan,nan,NaN
nan,nan,nan,NaN
nan,nan,nan,NaN
nan,nan,nan,NaN
nan,nan,nan,NaN
nan,nan,nan,NaN
nan,nan,nan,NaN
nan,nan,nan,NaN
nan,nan,nan,NaN
nan,nan,nan,NaN
nan,nan,nan,NaN
nan,nan,nan,NaN
nan,nan,nan,NaN
nan,nan,nan,NaN
nan,nan,nan,NaN
nan,nan,nan,NaN
nan,nan,nan,NaN
nan,nan,nan,NaN
nan,nan,nan,NaN
nan,nan,nan,NaN
nan,nan,nan,NaN
nan,nan,nan,NaN
nan,nan,nan,NaN
-1.22188,-0.10288,2.481,2.76748
-1.19622,-0.101387,2.445,2.72383
-1.18828,-0.101387,2.445,2.72035
-1.18035,-0.101387,2.445,2.7169
-1.16426,-0.100682,2.428,2.69459
-1.15638,-0.100682,2.428,2.69119
-1.1485,-0.100682,2.428,2.68782
-1.13263,-0.099977,2.411,2.66566
-1.1248,-0.099977,2.411,2.66235
-1.11698,-0.099977,2.411,2.65905
-1.10133,-0.0992721,2.394,2.63705
-1.09356,-0.0992721,2.394,2.63381
-1.08579,-0.0992721,2.394,2.6306
-1.07802,-0.0992721,2.394,2.6274
-1.07025,-0.0992721,2.394,2.62422
-1.06248,-0.0992721,2.394,2.62106
-1.05471,-0.0992721,2.394,2.61792
-1.04694,-0.0992721,2.394,2.6148
-1.03917,-0.0992721,2.394,2.6117
-1.0314,-0.0992721,2.394,2.60862
-1.02363,-0.0992721,2.394,2.60555
-1.01586,-0.0992721,2.394,2.60251
-1.00809,-0.0992721,2.394,2.59949
-1.00032,-0.0992721,2.394,2.59648
-0.992548,-0.0992721,2.394,2.5935
-0.984778,-0.0992721,2.394,2.59054
-0.977007,-0.0992721,2.394,2.58759
-0.969237,-0.0992721,2.394,2.58467
-0.961466,-0.0992721,2.394,2.58176
-0.953696,-0.0992721,2.394,2.57888
-0.945926,-0.0992721,2.394,2.57602
-0.938156,-0.0992721,2.394,2.57317
-0.930385,-0.0992721,2.394,2.57035
-0.922615,-0.0992721,2.394,2.56755
-0.914845,-0.0992721,2.394,2.56477
-0.907074,-0.0992721,2.394,2.56201
-0.899304,-0.0992721,2.394,2.55927
-0.891534,-0.0992721,2.394,2.55655
-0.883763,-0.0992721,2.394,2.55385
-0.875993,-0.0992721,2.394,2.55117
-0.868223,-0.0992721,2.394,2.54851
-0.866562,-0.099977,2.411,2.56395
-0.858737,-0.099977,2.411,2.56132
-0.850911,-0.099977,2.411,2.5587
-0.837141,-0.0992721,2.394,2.53809
-0.829371,-0.0992721,2.394,2.53554
-0.821601,-0.0992721,2.394,2.53301
-0.81383,-0.0992721,2.394,2.5305
-0.80606,-0.0992721,2.394,2.52801
-0.79829,-0.0992721,2.394,2.52554
-0.796133,-0.099977,2.411,2.54101
-0.788307,-0.099977,2.411,2.53857
-0.780482,-0.099977,2.411,2.53615
-0.772656,-0.099977,2.411,2.53376
-0.764831,-0.099977,2.411,2.53138
-0.757005,-0.099977,2.411,2.52903
-0.74918,-0.099977,2.411,2.52669
-0.741354,-0.099977,2.411,2.52439
-0.733529,-0.099977,2.411,2.5221
-0.725703,-0.099977,2.411,2.51983
-0.717878,-0.099977,2.411,2.51759
-0.715059,-0.100682,2.428,2.53311
-0.707178,-0.100682,2.428,2.53089
-0.699297,-0.100682,2.428,2.5287
-0.691417,-0.100682,2.428,2.52654
-0.683536,-0.100682,2.428,2.52439
-0.675655,-0.100682,2.428,2.52227
-0.67245,-0.101387,2.445,2.53781
-0.664514,-0.101387,2.445,2.53572
-0.656578,-0.101387,2.445,2.53365
-0.648643,-0.101387,2.445,2.53161
-0.640707,-0.101387,2.445,2.52959
-0.632771,-0.101387,2.445,2.52759
-0.629435,-0.102133,2.463,2.54421
-0.621441,-0.102133,2.463,2.54224
-0.613446,-0.102133,2.463,2.5403
-0.605452,-0.102133,2.463,2.53838
-0.601824,-0.10288,2.481,2.55502
-0.593771,-0.10288,2.481,2.55314
-0.585719,-0.10288,2.481,2.55128
-0.577666,-0.10288,2.481,2.54944
-0.569613,-0.10288,2.481,2.54763
-0.561561,-0.10288,2.481,2.54584
-0.553508,-0.10288,2.481,2.54408
-0.549413,-0.103626,2.499,2.56078
-0.541301,-0.103626,2.499,2.55905
-0.53319,-0.103626,2.499,2.55735
-0.525079,-0.103626,2.499,2.55567
-0.516968,-0.103626,2.499,2.55402
-0.508857,-0.103626,2.499,2.55239
-0.504353,-0.104373,2.517,2.56915
-0.496183,-0.104373,2.517,2.56756
-0.488013,-0.104373,2.517,2.566
-0.479844,-0.104373,2.517,2.56446
-0.475235,-0.10516,2.536,2.58229
-0.467004,-0.10516,2.536,2.58078
-0.458772,-0.10516,2.536,2.57931
-0.450541,-0.10516,2.536,2.57786
-0.44231,-0.10516,2.536,2.57643
-0.434079,-0.10516,2.536,2.57503
-0.429038,-0.105948,2.555,2.59294
-0.420745,-0.105948,2.555,2.59158
-0.412452,-0.105948,2.555,2.59024
-0.404159,-0.105948,2.555,2.58894
-0.395866,-0.105948,2.555,2.58766
-0.387574,-0.105948,2.555,2.5864
-0.382101,-0.106736,2.574,2.60439
-0.376505,-0.107524,2.593,2.6224
-0.368089,-0.107524,2.593,2.6212
-0.359673,-0.107524,2.593,2.62003
-0.351257,-0.107524,2.593,2.61889
-0.34284,-0.107524,2.593,2.61778
-0.331974,-0.106736,2.574,2.59751
-0.323619,-0.106736,2.574,2.59646
-0.315265,-0.106736,2.574,2.59543
-0.30691,-0.106736,2.574,2.59443
-0.296352,-0.105948,2.555,2.57431
-0.288059,-0.105948,2.555,2.57337
-0.279766,-0.105948,2.555,2.57245
-0.269454,-0.10516,2.536,2.55244
-0.261223,-0.10516,2.536,2.55159
-0.252992,-0.10516,2.536,2.55076
-0.244761,-0.10516,2.536,2.54995
-0.236529,-0.10516,2.536,2.54918
-0.228298,-0.10516,2.536,2.54843
-0.218418,-0.104373,2.517,2.52861
-0.208745,-0.103626,2.499,2.50984
-0.200634,-0.103626,2.499,2.50918
-0.192523,-0.103626,2.499,2.50855
-0.184412,-0.103626,2.499,2.50794
-0.1763,-0.103626,2.499,2.50735
-0.168189,-0.103626,2.499,2.5068
-0.161231,-0.104373,2.517,2.52432
-0.153062,-0.104373,2.517,2.52381
-0.144892,-0.104373,2.517,2.52333
-0.136723,-0.104373,2.517,2.52287
-0.128553,-0.104373,2.517,2.52244
-0.120383,-0.104373,2.517,2.52204
-0.112214,-0.104373,2.517,2.52166
-0.10483,-0.10516,2.536,2.54034
-0.0973222,-0.105948,2.555,2.55905
-0.0890293,-0.105948,2.555,2.55875
-0.0807364,-0.105948,2.555,2.55847
-0.0724435,-0.105948,2.555,2.55822
-0.0646277,-0.106736,2.574,2.57702
-0.0562731,-0.106736,2.574,2.57683
-0.0479185,-0.106736,2.574,2.57666
-0.039856,-0.107524,2.593,2.59553
-0.0314398,-0.107524,2.593,2.59542
-0.0232011,-0.108353,2.613,2.61535
-0.0148326,-0.109183,2.633,2.6353
-0.00628658,-0.109183,2.633,2.63527
0.00224232,-0.108353,2.613,2.61525
0.0107235,-0.108353,2.613,2.61527
0.0192046,-0.108353,2.613,2.61532
0.0276858,-0.108353,2.613,2.61539
0.0358901,-0.107524,2.593,2.59548
0.0443063,-0.107524,2.593,2.59561
0.0527226,-0.107524,2.593,2.59576
0.0611388,-0.107524,2.593,2.59595
0.069555,-0.107524,2.593,2.59616
0.0773999,-0.106736,2.574,2.57737
0.0857545,-0.106736,2.574,2.57764
0.0941091,-0.106736,2.574,2.57793
0.102464,-0.106736,2.574,2.57825
0.110818,-0.106736,2.574,2.57859
0.119173,-0.106736,2.574,2.57897
0.127527,-0.106736,2.574,2.57937
0.135882,-0.106736,2.574,2.57979
0.144236,-0.106736,2.574,2.58025
0.152591,-0.106736,2.574,2.58073
0.160946,-0.106736,2.574,2.58123
0.17055,-0.107524,2.593,2.60083
0.178966,-0.107524,2.593,2.60139
0.187382,-0.107524,2.593,2.60198
0.195799,-0.107524,2.593,2.6026
0.20579,-0.108353,2.613,2.62333
0.214271,-0.108353,2.613,2.62401
0.221047,-0.107524,2.593,2.60463
0.229463,-0.107524,2.593,2.60535
0.23788,-0.107524,2.593,2.60611
0.246296,-0.107524,2.593,2.60689
0.254712,-0.107524,2.593,2.6077
0.263128,-0.107524,2.593,2.60853
0.269555,-0.106736,2.574,2.59028
0.27791,-0.106736,2.574,2.59116
0.286264,-0.106736,2.574,2.59207
0.294619,-0.106736,2.574,2.593
0.302973,-0.106736,2.574,2.59397
0.311328,-0.106736,2.574,2.59496
0.319682,-0.106736,2.574,2.59597
0.328037,-0.106736,2.574,2.59701
0.333908,-0.105948,2.555,2.5789
0.342201,-0.105948,2.555,2.57999
0.347888,-0.10516,2.536,2.56191
0.356119,-0.10516,2.536,2.56304
0.36708,-0.105948,2.555,2.58341
0.372581,-0.10516,2.536,2.56538
0.380813,-0.10516,2.536,2.56659
0.389044,-0.10516,2.536,2.56782
0.397275,-0.10516,2.536,2.56908
0.402468,-0.104373,2.517,2.55111
0.410638,-0.104373,2.517,2.55241
0.418807,-0.104373,2.517,2.55374
0.423923,-0.103626,2.499,2.53682
0.428923,-0.10288,2.481,2.51991
0.436975,-0.10288,2.481,2.52129
0.441799,-0.102133,2.463,2.50439
0.449794,-0.102133,2.463,2.50582
0.457788,-0.102133,2.463,2.50726
0.465782,-0.102133,2.463,2.50874
0.473776,-0.102133,2.463,2.51023
0.481771,-0.102133,2.463,2.51175
0.489765,-0.102133,2.463,2.5133
0.497759,-0.102133,2.463,2.51487
0.50945,-0.10288,2.481,2.53485
0.517502,-0.10288,2.481,2.53648
0.525555,-0.10288,2.481,2.53814
0.537479,-0.103626,2.499,2.55825
0.553668,-0.10516,2.536,2.59787
0.5619,-0.10516,2.536,2.59963
0.570131,-0.10516,2.536,2.60142
0.578362,-0.10516,2.536,2.60324
0.586593,-0.10516,2.536,2.60508
0.594824,-0.10516,2.536,2.60695
0.607574,-0.105948,2.555,2.62838
0.615867,-0.105948,2.555,2.63031
0.62416,-0.105948,2.555,2.63227
0.632453,-0.105948,2.555,2.63424
0.64551,-0.106736,2.574,2.65585
0.653865,-0.106736,2.574,2.6579
0.662219,-0.106736,2.574,2.65996
0.670574,-0.106736,2.574,2.66206
0.678929,-0.106736,2.574,2.66417
0.68221,-0.105948,2.555,2.64663
0.690503,-0.105948,2.555,2.64878
0.698796,-0.105948,2.555,2.65096
0.707089,-0.105948,2.555,2.65315
0.715382,-0.105948,2.555,2.65538
0.723674,-0.105948,2.555,2.65762
0.731967,-0.105948,2.555,2.65989
0.74026,-0.105948,2.555,2.66219
0.748553,-0.105948,2.555,2.6645
0.751218,-0.10516,2.536,2.64701
0.759449,-0.10516,2.536,2.64936
0.76768,-0.10516,2.536,2.65173
0.775912,-0.10516,2.536,2.65413
0.784143,-0.10516,2.536,2.65655
0.792374,-0.10516,2.536,2.65899
0.800605,-0.10516,2.536,2.66145
0.814896,-0.105948,2.555,2.6839
0.823189,-0.105948,2.555,2.68643
0.831482,-0.105948,2.555,2.68898
0.839775,-0.105948,2.555,2.69156
0.848068,-0.105948,2.555,2.69415
0.856361,-0.105948,2.555,2.69678
0.858224,-0.10516,2.536,2.67935
0.866455,-0.10516,2.536,2.682
0.874686,-0.10516,2.536,2.68467
0.876303,-0.104373,2.517,2.66723
0.878147,-0.103626,2.499,2.65083
0.886258,-0.103626,2.499,2.65352
0.887927,-0.10288,2.481,2.63711
0.89598,-0.10288,2.481,2.63983
0.904033,-0.10288,2.481,2.64258
0.905468,-0.102133,2.463,2.62615
0.906787,-0.101387,2.445,2.60971
0.914722,-0.101387,2.445,2.61247
0.922658,-0.101387,2.445,2.61526
0.930594,-0.101387,2.445,2.61807
0.93853,-0.101387,2.445,2.62091
0.946466,-0.101387,2.445,2.62376
0.947766,-0.100682,2.428,2.60837
0.955646,-0.100682,2.428,2.61124
0.963527,-0.100682,2.428,2.61414
0.971408,-0.100682,2.428,2.61705
0.979289,-0.100682,2.428,2.61999
0.987169,-0.100682,2.428,2.62294
0.99505,-0.100682,2.428,2.62592
1.00995,-0.101387,2.445,2.64732
1.03288,-0.10288,2.481,2.68938
1.05603,-0.104373,2.517,2.73155
1.0642,-0.104373,2.517,2.73472
1.08856,-0.105948,2.555,2.77925
1.13034,-0.109183,2.633,2.86745
1.13889,-0.109183,2.633,2.87083
1.17489,-0.111795,2.696,2.943
1.21217,-0.11449,2.761,3.01755
1.24104,-0.116356,2.806,3.0704
1.25015,-0.116356,2.806,3.07409
1.29112,-0.119301,2.877,3.15568
1.3113,-0.120296,2.901,3.18587
1.32072,-0.120296,2.901,3.18976
1.3416,-0.121333,2.926,3.22119
1.36264,-0.122369,2.951,3.25272
1.37222,-0.122369,2.951,3.25674
1.37009,-0.121333,2.926,3.23316
1.3678,-0.120296,2.901,3.20954
1.37721,-0.120296,2.901,3.21356
1.38663,-0.120296,2.901,3.21761
1.39605,-0.120296,2.901,3.22168
1.40546,-0.120296,2.901,3.22577
1.41488,-0.120296,2.901,3.22988
1.43657,-0.121333,2.926,3.26189
1.44607,-0.121333,2.926,3.26608
1.45556,-0.121333,2.926,3.2703
1.46506,-0.121333,2.926,3.27454
1.47456,-0.121333,2.926,3.2788
1.48405,-0.121333,2.926,3.28308
1.50631,-0.122369,2.951,3.31547
1.5426,-0.124525,3.003,3.37833
1.58026,-0.126765,3.057,3.44362
1.59019,-0.126765,3.057,3.44819
1.6289,-0.129045,3.112,3.5149
1.65427,-0.130248,3.141,3.55239
1.66447,-0.130248,3.141,3.55715
1.70558,-0.132653,3.199,3.6277
1.7326,-0.133939,3.23,3.6678
1.75927,-0.135182,3.26,3.70687
1.76985,-0.135182,3.26,3.71191
1.79791,-0.136509,3.292,3.75345
1.80859,-0.136509,3.292,3.75858
1.81928,-0.136509,3.292,3.76373
1.82996,-0.136509,3.292,3.76891
1.84065,-0.136509,3.292,3.77411
1.85133,-0.136509,3.292,3.77933
1.84392,-0.135182,3.26,3.74779
1.8545,-0.135182,3.26,3.753
1.86508,-0.135182,3.26,3.75824
1.84056,-0.132653,3.199,3.69308
1.85095,-0.132653,3.199,3.69827
1.86133,-0.132653,3.199,3.70348
1.85475,-0.13145,3.17,3.67509
1.86504,-0.13145,3.17,3.68029
1.87532,-0.13145,3.17,3.68552
1.86836,-0.130248,3.141,3.657
1.86121,-0.129045,3.112,3.6284
1.87131,-0.129045,3.112,3.6336
1.86449,-0.127884,3.084,3.60607
1.84168,-0.125645,3.03,3.54802
1.85151,-0.125645,3.03,3.55314
1.84476,-0.124525,3.003,3.52656
1.82239,-0.122369,2.951,3.47052
1.83197,-0.122369,2.951,3.47556
1.82595,-0.121333,2.926,3.45113
1.81976,-0.120296,2.901,3.42663
1.82918,-0.120296,2.901,3.43164
1.82338,-0.119301,2.877,3.40824
1.81743,-0.118305,2.853,3.38477
1.82669,-0.118305,2.853,3.38975
1.80571,-0.116356,2.806,3.33883
1.79994,-0.115403,2.783,3.31635
1.78037,-0.113578,2.739,3.26875
1.78926,-0.113578,2.739,3.2736
1.78371,-0.112666,2.717,3.25214
1.76482,-0.110924,2.675,3.20664
1.7735,-0.110924,2.675,3.21142
1.7542,-0.109183,2.633,3.16573
1.74936,-0.108353,2.613,3.14639
1.75784,-0.108353,2.613,3.15111
1.73996,-0.106736,2.574,3.10875
1.7225,-0.10516,2.536,3.06747
-2.02986,-0.111838,2.926,3.56291
-1.98653,-0.109965,2.877,3.49793
-1.97719,-0.109965,2.877,3.49264
-1.95144,-0.109048,2.853,3.45827
-1.94218,-0.109048,2.853,3.45305
-1.93292,-0.109048,2.853,3.44785
-1.89197,-0.107251,2.806,3.38595
-1.86743,-0.106372,2.783,3.35316
-1.85839,-0.106372,2.783,3.34814
-1.83474,-0.105531,2.761,3.31671
-1.81123,-0.104691,2.739,3.28537
-1.80234,-0.104691,2.739,3.28048
-1.79345,-0.104691,2.739,3.2756
-1.77023,-0.10385,2.717,3.24447
-1.76141,-0.10385,2.717,3.23967
-1.76678,-0.104691,2.739,3.26107
-1.75789,-0.104691,2.739,3.25627
nan,nan,nan,NaN
nan,nan,nan,NaN
nan,nan,nan,NaN
-1.76446,-0.107251,2.806,3.31639
-1.75535,-0.107251,2.806,3.31156
-1.74625,-0.107251,2.806,3.30674
-1.75138,-0.108131,2.829,3.329
-1.7422,-0.108131,2.829,3.32418
-1.73301,-0.108131,2.829,3.31938
-1.72383,-0.108131,2.829,3.31459
-1.71465,-0.108131,2.829,3.30983
-1.70547,-0.108131,2.829,3.30508
-1.69629,-0.108131,2.829,3.30035
-1.6871,-0.108131,2.829,3.29564
-1.67792,-0.108131,2.829,3.29095
-1.66874,-0.108131,2.829,3.28628
-1.65956,-0.108131,2.829,3.28162
-1.63696,-0.107251,2.806,3.25035
-1.62785,-0.107251,2.806,3.24577
-1.60547,-0.106372,2.783,3.21465
-1.59644,-0.106372,2.783,3.21014
nan,nan,nan,NaN
nan,nan,nan,NaN
nan,nan,nan,NaN
nan,nan,nan,NaN
nan,nan,nan,NaN
nan,nan,nan,NaN
nan,nan,nan,NaN
nan,nan,nan,NaN
nan,nan,nan,NaN
nan,nan,nan,NaN
nan,nan,nan,NaN
nan,nan,nan,NaN
nan,nan,nan,NaN
nan,nan,nan,NaN
nan,nan,nan,NaN
nan,nan,nan,NaN
nan,nan,nan,NaN
nan,nan,nan,NaN
nan,nan,nan,NaN
nan,nan,nan,NaN
nan,nan,nan,NaN
nan,nan,nan,NaN
nan,nan,nan,NaN
nan,nan,nan,NaN
-1.22188,-0.0948293,2.481,2.76719
-1.19622,-0.0934533,2.445,2.72354
-1.18828,-0.0934533,2.445,2.72007
-1.18035,-0.0934533,2.445,2.71661
-1.17241,-0.0934533,2.445,2.71317
-1.16447,-0.0934533,2.445,2.70975
-1.1485,-0.0928035,2.428,2.68753
-1.14062,-0.0928035,2.428,2.68418
-1.13274,-0.0928035,2.428,2.68084
-1.11698,-0.0921537,2.411,2.65877
-1.10915,-0.0921537,2.411,2.65549
-1.09356,-0.0915039,2.394,2.63353
-1.08579,-0.0915039,2.394,2.63031
-1.07802,-0.0915039,2.394,2.62712
-1.07025,-0.0915039,2.394,2.62394
-1.06248,-0.0915039,2.394,2.62078
-1.05471,-0.0915039,2.394,2.61764
-1.04694,-0.0915039,2.394,2.61452
-1.03917,-0.0915039,2.394,2.61141
-1.0314,-0.0915039,2.394,2.60833
-1.02363,-0.0915039,2.394,2.60527
-1.01586,-0.0915039,2.394,2.60223
-1.00809,-0.0915039,2.394,2.5992
-1.00032,-0.0915039,2.394,2.5962
-0.992548,-0.0915039,2.394,2.59321
-0.984778,-0.0915039,2.394,2.59025
-0.977007,-0.0915039,2.394,2.58731
-0.969237,-0.0915039,2.394,2.58438
-0.961466,-0.0915039,2.394,2.58148
-0.953696,-0.0915039,2.394,2.57859
-0.945926,-0.0915039,2.394,2.57573
-0.938156,-0.0915039,2.394,2.57289
-0.936992,-0.0921537,2.411,2.58831
-0.929166,-0.0921537,2.411,2.58549
-0.921341,-0.0921537,2.411,2.58269
-0.913515,-0.0921537,2.411,2.57991
-0.90569,-0.0921537,2.411,2.57715
-0.891534,-0.0915039,2.394,2.55626
-0.883763,-0.0915039,2.394,2.55356
-0.875993,-0.0915039,2.394,2.55088
-0.868223,-0.0915039,2.394,2.54822
-0.866562,-0.0921537,2.411,2.56366
-0.858737,-0.0921537,2.411,2.56102
-0.844912,-0.0915039,2.394,2.54037
-0.837141,-0.0915039,2.394,2.5378
-0.829371,-0.0915039,2.394,2.53524
-0.821601,-0.0915039,2.394,2.53271
-0.81383,-0.0915039,2.394,2.5302
-0.80606,-0.0915039,2.394,2.52771
-0.79829,-0.0915039,2.394,2.52525
-0.796133,-0.0921537,2.411,2.54072
-0.788307,-0.0921537,2.411,2.53828
-0.780482,-0.0921537,2.411,2.53586
-0.772656,-0.0921537,2.411,2.53346
-0.764831,-0.0921537,2.411,2.53108
-0.757005,-0.0921537,2.411,2.52873
-0.74918,-0.0921537,2.411,2.5264
-0.741354,-0.0921537,2.411,2.52409
-0.733529,-0.0921537,2.411,2.5218
-0.725703,-0.0921537,2.411,2.51954
-0.722939,-0.0928035,2.428,2.53504
-0.715059,-0.0928035,2.428,2.53281
-0.707178,-0.0928035,2.428,2.53059
-0.699297,-0.0928035,2.428,2.5284
-0.696258,-0.0934533,2.445,2.54392
-0.688322,-0.0934533,2.445,2.54176
-0.680386,-0.0934533,2.445,2.53962
-0.67245,-0.0934533,2.445,2.53751
-0.664514,-0.0934533,2.445,2.53542
-0.656578,-0.0934533,2.445,2.53335
-0.653418,-0.0941413,2.463,2.54994
-0.645424,-0.0941413,2.463,2.5479
-0.637429,-0.0941413,2.463,2.54589
-0.629435,-0.0941413,2.463,2.5439
-0.621441,-0.0941413,2.463,2.54193
-0.613446,-0.0941413,2.463,2.53999
-0.605452,-0.0941413,2.463,2.53807
-0.601824,-0.0948293,2.481,2.55471
-0.593771,-0.0948293,2.481,2.55283
-0.585719,-0.0948293,2.481,2.55096
-0.577666,-0.0948293,2.481,2.54913
