-1.6607,0.22554,2.463,2.97912
-1.6527,0.22554,2.463,2.97467
-1.65673,0.227188,2.481,2.99194
-1.66064,0.228837,2.499,3.00917
-1.65253,0.228837,2.499,3.0047
-1.64442,0.228837,2.499,3.00025
-1.64809,0.230485,2.517,3.01739
-1.63992,0.230485,2.517,3.01293
-1.63175,0.230485,2.517,3.00849
-1.63584,0.232225,2.536,3.02675
-1.62761,0.232225,2.536,3.02231
-1.63151,0.233965,2.555,3.04049
-1.63529,0.235704,2.574,3.05863
-1.63894,0.237444,2.593,3.07671
-1.63052,0.237444,2.593,3.07224
-1.62211,0.237444,2.593,3.06778
-1.61369,0.237444,2.593,3.06334
-1.60528,0.237444,2.593,3.05891
-1.59686,0.237444,2.593,3.0545
-1.58844,0.237444,2.593,3.05011
-1.56845,0.235704,2.574,3.02342
-1.56009,0.235704,2.574,3.01909
-1.52883,0.232225,2.536,2.97028
-1.5206,0.232225,2.536,2.96605
-1.50104,0.230485,2.517,2.93965
-1.47152,0.227188,2.481,2.8935
-1.46346,0.227188,2.481,2.88941
-1.44485,0.22554,2.463,2.86441
-1.41644,0.222335,2.428,2.81974
-1.40856,0.222335,2.428,2.81579
-1.39087,0.220778,2.411,2.79217
-1.37329,0.219222,2.394,2.76862
-1.36552,0.219222,2.394,2.76477
-1.35775,0.219222,2.394,2.76094
-1.3404,0.217665,2.377,2.73755
-1.33268,0.217665,2.377,2.73378
-1.32497,0.217665,2.377,2.73003
-1.31725,0.217665,2.377,2.72629
-1.3189,0.219222,2.394,2.74204
-1.32044,0.220778,2.411,2.75776
-1.31262,0.220778,2.411,2.75402
-1.31399,0.222335,2.428,2.76969
-1.31526,0.223892,2.445,2.78533
-1.30732,0.223892,2.445,2.78159
-1.31852,0.227188,2.481,2.81877
-1.31997,0.228837,2.499,2.83543
-1.32131,0.230485,2.517,2.85206
-1.31314,0.230485,2.517,2.84829
-1.32467,0.233965,2.555,2.88748
-1.33596,0.237444,2.593,2.92657
-1.32754,0.237444,2.593,2.92274
-1.3293,0.239276,2.613,2.94144
-1.32082,0.239276,2.613,2.93761
-1.31234,0.239276,2.613,2.93381
-1.31383,0.241107,2.633,2.95245
-1.30529,0.241107,2.633,2.94866
-1.29674,0.241107,2.633,2.94489
-1.2882,0.241107,2.633,2.94113
-1.26993,0.239276,2.613,2.91509
-1.26145,0.239276,2.613,2.9114
-1.25297,0.239276,2.613,2.90774
-1.23496,0.237444,2.593,2.88187
-1.22654,0.237444,2.593,2.87827
-1.2092,0.235704,2.574,2.85363
-1.20085,0.235704,2.574,2.8501
-1.18369,0.233965,2.555,2.82558
-1.1754,0.233965,2.555,2.82211
-1.15843,0.232225,2.536,2.79771
-1.14158,0.230485,2.517,2.77338
-1.13341,0.230485,2.517,2.77002
-1.11719,0.228837,2.499,2.7469
-1.10908,0.228837,2.499,2.74362
-1.10097,0.228837,2.499,2.74035
-1.08499,0.227188,2.481,2.71738
-1.07693,0.227188,2.481,2.71418
-1.06888,0.227188,2.481,2.71099
-1.05313,0.22554,2.463,2.68818
-1.04514,0.22554,2.463,2.68506
-1.03714,0.22554,2.463,2.68196
-1.02915,0.22554,2.463,2.67888
-1.02116,0.22554,2.463,2.67582
-1.01316,0.22554,2.463,2.67278
-1.00517,0.22554,2.463,2.66976
-0.989885,0.223892,2.445,2.64727
-0.981949,0.223892,2.445,2.64431
-0.974013,0.223892,2.445,2.64137
-0.966077,0.223892,2.445,2.63846
-0.958141,0.223892,2.445,2.63556
-0.950205,0.223892,2.445,2.63269
-0.94227,0.223892,2.445,2.62983
-0.927837,0.222335,2.428,2.60874
-0.919957,0.222335,2.428,2.60594
-0.912076,0.222335,2.428,2.60317
-0.904195,0.222335,2.428,2.60042
-0.890039,0.220778,2.411,2.5795
-0.882213,0.220778,2.411,2.57681
-0.874388,0.220778,2.411,2.57414
-0.866562,0.220778,2.411,2.5715
-0.858737,0.220778,2.411,2.56887
-0.850911,0.220778,2.411,2.56626
-0.837141,0.219222,2.394,2.5456
-0.829371,0.219222,2.394,2.54306
-0.827435,0.220778,2.411,2.55858
-0.819609,0.220778,2.411,2.55606
-0.811784,0.220778,2.411,2.55356
-0.803958,0.220778,2.411,2.55108
-0.796133,0.220778,2.411,2.54863
-0.793866,0.222335,2.428,2.56415
-0.785985,0.222335,2.428,2.56172
-0.778104,0.222335,2.428,2.55931
-0.770224,0.222335,2.428,2.55692
-0.762343,0.222335,2.428,2.55456
-0.759745,0.223892,2.445,2.57009
-0.751809,0.223892,2.445,2.56776
-0.743873,0.223892,2.445,2.56544
-0.735937,0.223892,2.445,2.56315
-0.728001,0.223892,2.445,2.56089
-0.720065,0.223892,2.445,2.55864
-0.712129,0.223892,2.445,2.55642
-0.699297,0.222335,2.428,2.53646
-0.691417,0.222335,2.428,2.5343
-0.688322,0.223892,2.445,2.54989
-0.680386,0.223892,2.445,2.54776
-0.67245,0.223892,2.445,2.54565
-0.669406,0.22554,2.463,2.56229
-0.661412,0.22554,2.463,2.56022
-0.653418,0.22554,2.463,2.55816
-0.645424,0.22554,2.463,2.55613
-0.637429,0.22554,2.463,2.55412
-0.629435,0.22554,2.463,2.55214
-0.621441,0.22554,2.463,2.55018
-0.613446,0.22554,2.463,2.54825
-0.605452,0.22554,2.463,2.54633
-0.593092,0.223892,2.445,2.52585
-0.585156,0.223892,2.445,2.524
-0.57722,0.223892,2.445,2.52217
-0.569284,0.223892,2.445,2.52036
-0.561348,0.223892,2.445,2.51858
-0.557486,0.22554,2.463,2.53536
-0.549492,0.22554,2.463,2.53361
-0.541498,0.22554,2.463,2.53189
-0.533504,0.22554,2.463,2.53019
-0.525509,0.22554,2.463,2.52852
-0.517515,0.22554,2.463,2.52687
-0.513244,0.227188,2.481,2.5437
-0.505192,0.227188,2.481,2.54208
-0.497139,0.227188,2.481,2.5405
-0.489086,0.227188,2.481,2.53893
-0.481034,0.227188,2.481,2.53739
-0.472981,0.227188,2.481,2.53588
-0.464928,0.227188,2.481,2.53439
-0.456875,0.227188,2.481,2.53293
-0.448823,0.227188,2.481,2.53149
-0.44077,0.227188,2.481,2.53007
-0.432717,0.227188,2.481,2.52868
-0.424665,0.227188,2.481,2.52731
-0.416612,0.227188,2.481,2.52597
-0.408559,0.227188,2.481,2.52466
-0.400506,0.227188,2.481,2.52337
-0.392454,0.227188,2.481,2.5221
-0.38719,0.228837,2.499,2.53915
-0.379079,0.228837,2.499,2.53793
-0.370968,0.228837,2.499,2.53673
-0.36547,0.230485,2.517,2.55382
-0.357301,0.230485,2.517,2.55266
-0.349131,0.230485,2.517,2.55153
-0.343535,0.232225,2.536,2.56968
-0.335304,0.232225,2.536,2.56859
-0.327073,0.232225,2.536,2.56753
-0.318842,0.232225,2.536,2.56649
-0.31061,0.232225,2.536,2.56548
-0.304645,0.233965,2.555,2.58371
-0.296352,0.233965,2.555,2.58275
-0.290201,0.235704,2.574,2.60101
-0.281846,0.235704,2.574,2.60009
-0.273492,0.235704,2.574,2.5992
-0.26318,0.233965,2.555,2.57915
-0.254887,0.233965,2.555,2.57832
-0.246594,0.233965,2.555,2.57751
-0.238301,0.233965,2.555,2.57673
-0.230009,0.233965,2.555,2.57598
-0.221716,0.233965,2.555,2.57525
-0.211836,0.232225,2.536,2.55541
-0.203604,0.232225,2.536,2.55474
-0.195373,0.232225,2.536,2.55409
-0.187142,0.232225,2.536,2.55348
-0.178911,0.232225,2.536,2.55289
-0.170679,0.232225,2.536,2.55232
-0.162448,0.232225,2.536,2.55179
-0.154217,0.232225,2.536,2.55128
-0.145986,0.232225,2.536,2.55079
-0.137755,0.232225,2.536,2.55033
-0.130494,0.233965,2.555,2.56901
-0.122201,0.233965,2.555,2.5686
-0.113908,0.233965,2.555,2.56822
-0.105615,0.233965,2.555,2.56786
-0.0973222,0.233965,2.555,2.56753
-0.0890293,0.233965,2.555,2.56723
-0.0807364,0.233965,2.555,2.56696
-0.0724435,0.233965,2.555,2.56671
-0.0641506,0.233965,2.555,2.56649
-0.0554423,0.232225,2.536,2.54721
-0.0472111,0.232225,2.536,2.54705
-0.0389799,0.232225,2.536,2.54691
-0.0307487,0.232225,2.536,2.5468
-0.0225174,0.232225,2.536,2.54671
-0.0141792,0.230485,2.517,2.52757
-0.00600962,0.230485,2.517,2.52754
0.00215994,0.230485,2.517,2.52753
0.0103295,0.230485,2.517,2.52755
0.0184991,0.230485,2.517,2.5276
0.0266686,0.230485,2.517,2.52767
0.0348382,0.230485,2.517,2.52777
0.0430077,0.230485,2.517,2.5279
0.0511773,0.230485,2.517,2.52805
0.0593468,0.230485,2.517,2.52823
0.0675164,0.230485,2.517,2.52843
0.075686,0.230485,2.517,2.52866
0.0838555,0.230485,2.517,2.52892
0.0920251,0.230485,2.517,2.52921
0.100195,0.230485,2.517,2.52952
0.107589,0.228837,2.499,2.51176
0.1157,0.228837,2.499,2.51212
0.123811,0.228837,2.499,2.51251
0.131923,0.228837,2.499,2.51292
0.140034,0.228837,2.499,2.51336
0.148145,0.228837,2.499,2.51382
0.156256,0.228837,2.499,2.51432
0.164367,0.228837,2.499,2.51483
nan,nan,nan,NaN
nan,nan,nan,NaN
nan,nan,nan,NaN
nan,nan,nan,NaN
nan,nan,nan,NaN
nan,nan,nan,NaN
nan,nan,nan,NaN
nan,nan,nan,NaN
nan,nan,nan,NaN
nan,nan,nan,NaN
nan,nan,nan,NaN
nan,nan,nan,NaN
nan,nan,nan,NaN
nan,nan,nan,NaN
nan,nan,nan,NaN
nan,nan,nan,NaN
nan,nan,nan,NaN
nan,nan,nan,NaN
nan,nan,nan,NaN
nan,nan,nan,NaN
nan,nan,nan,NaN
nan,nan,nan,NaN
nan,nan,nan,NaN
nan,nan,nan,NaN
nan,nan,nan,NaN
nan,nan,nan,NaN
nan,nan,nan,NaN
nan,nan,nan,NaN
nan,nan,nan,NaN
nan,nan,nan,NaN
nan,nan,nan,NaN
0.406112,0.219222,2.394,2.43808
0.410943,0.217665,2.377,2.42206
0.418658,0.217665,2.377,2.42338
0.426373,0.217665,2.377,2.42473
0.434088,0.217665,2.377,2.4261
0.441803,0.217665,2.377,2.42749
0.446493,0.2162,2.361,2.41255
0.454156,0.2162,2.361,2.41398
0.461819,0.2162,2.361,2.41544
0.472664,0.217665,2.377,2.43329
0.480379,0.217665,2.377,2.4348
0.488094,0.217665,2.377,2.43634
0.49581,0.217665,2.377,2.4379
0.503525,0.217665,2.377,2.43948
0.51124,0.217665,2.377,2.44108
0.518955,0.217665,2.377,2.44271
0.52667,0.217665,2.377,2.44436
0.534385,0.217665,2.377,2.44603
0.5421,0.217665,2.377,2.44773
0.546115,0.2162,2.361,2.43296
0.553778,0.2162,2.361,2.43469
0.553832,0.213269,2.329,2.40343
0.561391,0.213269,2.329,2.40518
0.56895,0.213269,2.329,2.40695
0.561162,0.207592,2.267,2.34463
0.568521,0.207592,2.267,2.3464
0.564701,0.203563,2.223,2.30262
0.560854,0.199625,2.18,2.25982
0.56793,0.199625,2.18,2.26159
0.571577,0.198435,2.167,2.24988
0.574872,0.197153,2.153,2.23713
0.58186,0.197153,2.153,2.23894
0.581464,0.194681,2.126,2.21266
0.584767,0.19349,2.113,2.20095
0.591625,0.19349,2.113,2.20278
0.598483,0.19349,2.113,2.20463
0.605341,0.19349,2.113,2.2065
0.6122,0.19349,2.113,2.20839
0.622867,0.194681,2.126,2.2239
0.629767,0.194681,2.126,2.22584
0.64086,0.195963,2.14,2.24248
0.651741,0.197153,2.153,2.25811
0.658729,0.197153,2.153,2.26013
0.674066,0.199625,2.18,2.29055
0.685516,0.200907,2.194,2.30736
0.692637,0.200907,2.194,2.30949
0.704542,0.202281,2.209,2.32744
0.716223,0.203563,2.223,2.34439
0.732876,0.206218,2.252,2.37721
0.740185,0.206218,2.252,2.37948
0.757452,0.208966,2.282,2.41349
0.770222,0.210431,2.298,2.43276
0.777681,0.210431,2.298,2.43513
nan,nan,nan,NaN
nan,nan,nan,NaN
nan,nan,nan,NaN
nan,nan,nan,NaN
0.861078,0.222335,2.428,2.58574
0.868959,0.222335,2.428,2.58838
0.87684,0.222335,2.428,2.59104
0.88472,0.222335,2.428,2.59371
0.892601,0.222335,2.428,2.59641
0.894177,0.220778,2.411,2.58093
0.902002,0.220778,2.411,2.58365
0.909828,0.220778,2.411,2.5864
0.917653,0.220778,2.411,2.58916
0.925479,0.220778,2.411,2.59194
0.933304,0.220778,2.411,2.59475
0.94113,0.220778,2.411,2.59757
0.948955,0.220778,2.411,2.60042
0.956781,0.220778,2.411,2.60329
0.964606,0.220778,2.411,2.60617
0.972432,0.220778,2.411,2.60908
0.980257,0.220778,2.411,2.612
0.99505,0.222335,2.428,2.63339
1.00293,0.222335,2.428,2.63638
1.01081,0.222335,2.428,2.63939
1.01869,0.222335,2.428,2.64241
1.02657,0.222335,2.428,2.64546
1.0417,0.223892,2.445,2.66707
1.04963,0.223892,2.445,2.67018
1.05757,0.223892,2.445,2.67331
1.0655,0.223892,2.445,2.67646
1.07344,0.223892,2.445,2.67963
1.08138,0.223892,2.445,2.68282
1.08931,0.223892,2.445,2.68603
1.09725,0.223892,2.445,2.68926
1.10518,0.223892,2.445,2.69251
1.11312,0.223892,2.445,2.69577
1.12105,0.223892,2.445,2.69906
1.12899,0.223892,2.445,2.70236
1.13693,0.223892,2.445,2.70569
1.1369,0.222335,2.428,2.6902
1.14478,0.222335,2.428,2.69354
1.15266,0.222335,2.428,2.6969
1.16054,0.222335,2.428,2.70027
1.16842,0.222335,2.428,2.70367
1.17631,0.222335,2.428,2.70709
1.18419,0.222335,2.428,2.71052
1.19207,0.222335,2.428,2.71397
1.20835,0.223892,2.445,2.73647
1.21629,0.223892,2.445,2.73998
1.22422,0.223892,2.445,2.74351
1.23216,0.223892,2.445,2.74706
1.24009,0.223892,2.445,2.75063
1.24803,0.223892,2.445,2.75422
1.26521,0.22554,2.463,2.77813
1.28251,0.227188,2.481,2.80211
1.29056,0.227188,2.481,2.8058
1.29862,0.227188,2.481,2.80952
1.32563,0.230485,2.517,2.85407
1.3338,0.230485,2.517,2.85787
1.37236,0.235704,2.574,2.9265
1.40163,0.239276,2.613,2.97483
1.41011,0.239276,2.613,2.97883
1.44085,0.24303,2.654,3.02966
1.47241,0.246876,2.696,3.08178
1.50478,0.250814,2.739,3.13519
1.51367,0.250814,2.739,3.13946
1.54702,0.254843,2.783,3.19426
1.58177,0.259055,2.829,3.25152
1.59095,0.259055,2.829,3.25599
1.61371,0.261253,2.853,3.28815
1.63662,0.263451,2.877,3.3204
1.64596,0.263451,2.877,3.32502
1.6553,0.263451,2.877,3.32965
1.66464,0.263451,2.877,3.3343
1.67398,0.263451,2.877,3.33897
1.66927,0.261253,2.853,3.31577
1.66441,0.259055,2.829,3.29251
1.67359,0.259055,2.829,3.29716
1.68278,0.259055,2.829,3.30183
1.6782,0.256949,2.806,3.27964
1.68731,0.256949,2.806,3.28431
1.68251,0.254843,2.783,3.26204
1.67817,0.252828,2.761,3.24088
1.68714,0.252828,2.761,3.24553
1.66907,0.248799,2.717,3.1984
1.66492,0.246876,2.696,3.17826
1.67367,0.246876,2.696,3.18285
1.65621,0.24303,2.654,3.1378
1.65165,0.241107,2.633,3.11749
1.6602,0.241107,2.633,3.12203
1.65607,0.239276,2.613,3.10283
1.6397,0.235704,2.574,3.06099
1.63589,0.233965,2.555,3.04285
1.64419,0.233965,2.555,3.04731
1.64019,0.232225,2.536,3.0291
1.63607,0.230485,2.517,3.01084
1.64424,0.230485,2.517,3.01528
1.64059,0.228837,2.499,2.99815
1.63683,0.227188,2.481,2.98097
1.64488,0.227188,2.481,2.9854
1.64094,0.22554,2.463,2.96815
1.6255,0.222335,2.428,2.93034
1.63339,0.222335,2.428,2.93472
1.62977,0.220778,2.411,2.91853
1.62605,0.219222,2.394,2.9023
-1.70866,0.233532,2.463,3.00673
-1.68824,0.231825,2.445,2.98026
-1.6803,0.231825,2.445,2.97577
-1.67237,0.231825,2.445,2.97129
-1.66443,0.231825,2.445,2.96683
-1.6565,0.231825,2.445,2.96239
-1.64856,0.231825,2.445,2.95796
-1.64063,0.231825,2.445,2.95354
-1.64471,0.233532,2.463,2.97085
-1.64868,0.235239,2.481,2.98812
-1.64062,0.235239,2.481,2.98368
-1.63257,0.235239,2.481,2.97926
-1.6363,0.236945,2.499,2.99644
-1.62819,0.236945,2.499,2.99202
-1.63175,0.238652,2.517,3.00913
-1.62358,0.238652,2.517,3.00471
-1.61541,0.238652,2.517,3.0003
-1.61938,0.240454,2.536,3.01852
-1.62322,0.242255,2.555,3.0367
-1.62693,0.244057,2.574,3.05482
-1.61858,0.244057,2.574,3.05038
-1.62211,0.245858,2.593,3.06844
-1.61369,0.245858,2.593,3.064
-1.60528,0.245858,2.593,3.05958
-1.59686,0.245858,2.593,3.05517
-1.58844,0.245858,2.593,3.05078
-1.56845,0.244057,2.574,3.02408
-1.56009,0.244057,2.574,3.01976
-1.54029,0.242255,2.555,2.99319
-1.53199,0.242255,2.555,2.98893
-1.51237,0.240454,2.536,2.96249
-1.48219,0.236945,2.499,2.91514
-1.47408,0.236945,2.499,2.91102
-1.45541,0.235239,2.481,2.88599
-1.42636,0.231825,2.445,2.84012
-1.41842,0.231825,2.445,2.83614
-1.40068,0.230214,2.428,2.81249
-1.38305,0.228602,2.411,2.78891
-1.37522,0.228602,2.411,2.78503
-1.35775,0.22699,2.394,2.76157
-1.3404,0.225378,2.377,2.73817
-1.33268,0.225378,2.377,2.7344
-1.32497,0.225378,2.377,2.73065
-1.31725,0.225378,2.377,2.72692
-1.3189,0.22699,2.394,2.74267
-1.31113,0.22699,2.394,2.73895
-1.30336,0.22699,2.394,2.73524
-1.31399,0.230214,2.428,2.77033
-1.31526,0.231825,2.445,2.78598
-1.30732,0.231825,2.445,2.78224
-1.31852,0.235239,2.481,2.81943
-1.31997,0.236945,2.499,2.8361
-1.32131,0.238652,2.517,2.85274
-1.31314,0.238652,2.517,2.84896
-1.32467,0.242255,2.555,2.88816
-1.33596,0.245858,2.593,2.92726
-1.32754,0.245858,2.593,2.92343
-1.3293,0.247754,2.613,2.94214
-1.32082,0.247754,2.613,2.93832
-1.31234,0.247754,2.613,2.93451
-1.31383,0.249651,2.633,2.95316
-1.30529,0.249651,2.633,2.94937
-1.29674,0.249651,2.633,2.9456
-1.2882,0.249651,2.633,2.94185
-1.26993,0.247754,2.613,2.9158
-1.26145,0.247754,2.613,2.91211
-1.25297,0.247754,2.613,2.90845
-1.23496,0.245858,2.593,2.88257
-1.22654,0.245858,2.593,2.87898
-1.2092,0.244057,2.574,2.85433
-1.20085,0.244057,2.574,2.8508
-1.18369,0.242255,2.555,2.82628
-1.1754,0.242255,2.555,2.82281
-1.15843,0.240454,2.536,2.7984
-1.14158,0.238652,2.517,2.77407
-1.13341,0.238652,2.517,2.77071
-1.11719,0.236945,2.499,2.74759
-1.10908,0.236945,2.499,2.7443
-1.10097,0.236945,2.499,2.74104
-1.08499,0.235239,2.481,2.71807
-1.07693,0.235239,2.481,2.71486
-1.06888,0.235239,2.481,2.71168
-1.05313,0.233532,2.463,2.68886
-1.04514,0.233532,2.463,2.68574
-1.03714,0.233532,2.463,2.68264
-1.02915,0.233532,2.463,2.67956
-1.02116,0.233532,2.463,2.6765
-1.01316,0.233532,2.463,2.67346
-1.00517,0.233532,2.463,2.67044
-0.989885,0.231825,2.445,2.64795
-0.981949,0.231825,2.445,2.64499
-0.974013,0.231825,2.445,2.64206
-0.966077,0.231825,2.445,2.63914
-0.958141,0.231825,2.445,2.63625
-0.950205,0.231825,2.445,2.63337
-0.94227,0.231825,2.445,2.63052
-0.927837,0.230214,2.428,2.60942
-0.919957,0.230214,2.428,2.60663
-0.912076,0.230214,2.428,2.60386
-0.904195,0.230214,2.428,2.60111
-0.890039,0.228602,2.411,2.58018
-0.882213,0.228602,2.411,2.57749
-0.874388,0.228602,2.411,2.57483
-0.866562,0.228602,2.411,2.57218
-0.858737,0.228602,2.411,2.56955
-0.850911,0.228602,2.411,2.56695
-0.837141,0.22699,2.394,2.54628
-0.829371,0.22699,2.394,2.54374
-0.821601,0.22699,2.394,2.54122
-0.81383,0.22699,2.394,2.53872
-0.811784,0.228602,2.411,2.55425
-0.803958,0.228602,2.411,2.55177
-0.796133,0.228602,2.411,2.54931
-0.788307,0.228602,2.411,2.54688
-0.780482,0.228602,2.411,2.54447
-0.772656,0.228602,2.411,2.54208
-0.770224,0.230214,2.428,2.55762
-0.762343,0.230214,2.428,2.55526
-0.754462,0.230214,2.428,2.55292
-0.746581,0.230214,2.428,2.5506
-0.743873,0.231825,2.445,2.56615
-0.735937,0.231825,2.445,2.56386
-0.728001,0.231825,2.445,2.56159
-0.720065,0.231825,2.445,2.55935
-0.712129,0.231825,2.445,2.55713
-0.699297,0.230214,2.428,2.53716
-0.691417,0.230214,2.428,2.535
-0.688322,0.231825,2.445,2.5506
-0.680386,0.231825,2.445,2.54847
-0.67245,0.231825,2.445,2.54636
-0.669406,0.233532,2.463,2.56301
-0.661412,0.233532,2.463,2.56093
-0.653418,0.233532,2.463,2.55888
-0.645424,0.233532,2.463,2.55685
-0.637429,0.233532,2.463,2.55484
-0.629435,0.233532,2.463,2.55286
-0.621441,0.233532,2.463,2.5509
-0.613446,0.233532,2.463,2.54896
-0.601027,0.231825,2.445,2.52844
-0.593092,0.231825,2.445,2.52656
-0.585156,0.231825,2.445,2.52471
-0.57722,0.231825,2.445,2.52289
-0.569284,0.231825,2.445,2.52108
-0.561348,0.231825,2.445,2.5193
-0.553412,0.231825,2.445,2.51755
-0.545476,0.231825,2.445,2.51581
-0.541498,0.233532,2.463,2.53261
-0.533504,0.233532,2.463,2.53092
-0.525509,0.233532,2.463,2.52924
-0.517515,0.233532,2.463,2.52759
-0.509521,0.233532,2.463,2.52597
-0.501526,0.233532,2.463,2.52437
-0.497139,0.235239,2.481,2.54123
-0.489086,0.235239,2.481,2.53967
-0.481034,0.235239,2.481,2.53813
-0.472981,0.235239,2.481,2.53661
-0.464928,0.235239,2.481,2.53512
-0.456875,0.235239,2.481,2.53366
-0.448823,0.235239,2.481,2.53222
-0.44077,0.235239,2.481,2.53081
-0.432717,0.235239,2.481,2.52942
-0.424665,0.235239,2.481,2.52805
-0.416612,0.235239,2.481,2.52671
-0.408559,0.235239,2.481,2.5254
-0.400506,0.235239,2.481,2.5241
-0.392454,0.235239,2.481,2.52284
-0.38719,0.236945,2.499,2.53989
-0.381809,0.238652,2.517,2.55696
-0.37364,0.238652,2.517,2.55575
-0.36547,0.238652,2.517,2.55457
-0.357301,0.238652,2.517,2.55341
-0.349131,0.238652,2.517,2.55228
-0.343535,0.240454,2.536,2.57043
-0.335304,0.240454,2.536,2.56935
-0.327073,0.240454,2.536,2.56829
-0.318842,0.240454,2.536,2.56725
-0.312937,0.242255,2.555,2.58547
-0.304645,0.242255,2.555,2.58448
-0.296352,0.242255,2.555,2.58351
-0.288059,0.242255,2.555,2.58257
-0.279766,0.242255,2.555,2.58166
-0.271473,0.242255,2.555,2.58078
-0.26318,0.242255,2.555,2.57992
-0.254887,0.242255,2.555,2.57909
-0.246594,0.242255,2.555,2.57828
-0.238301,0.242255,2.555,2.5775
-0.230009,0.242255,2.555,2.57675
-0.221716,0.242255,2.555,2.57602
-0.211836,0.240454,2.536,2.55617
-0.203604,0.240454,2.536,2.5555
-0.195373,0.240454,2.536,2.55486
-0.187142,0.240454,2.536,2.55424
-0.178911,0.240454,2.536,2.55365
-0.170679,0.240454,2.536,2.55309
-0.162448,0.240454,2.536,2.55255
-0.154217,0.240454,2.536,2.55204
-0.145986,0.240454,2.536,2.55155
-0.138787,0.242255,2.555,2.57021
-0.130494,0.242255,2.555,2.56977
-0.122201,0.242255,2.555,2.56937
-0.113908,0.242255,2.555,2.56899
-0.105615,0.242255,2.555,2.56863
-0.0973222,0.242255,2.555,2.5683
-0.0890293,0.242255,2.555,2.568
-0.0807364,0.242255,2.555,2.56773
-0.0724435,0.242255,2.555,2.56748
-0.0641506,0.242255,2.555,2.56726
-0.0558577,0.242255,2.555,2.56707
-0.0475648,0.242255,2.555,2.5669
-0.0389799,0.240454,2.536,2.54767
-0.0307487,0.240454,2.536,2.54756
-0.0225174,0.240454,2.536,2.54747
-0.0142862,0.240454,2.536,2.54741
-0.00605498,0.240454,2.536,2.54738
0.00217625,0.240454,2.536,2.54737
0.0104075,0.240454,2.536,2.5474
0.0186387,0.240454,2.536,2.54744
0.0268699,0.240454,2.536,2.54752
0.0348382,0.238652,2.517,2.52853
0.0430077,0.238652,2.517,2.52865
0.0511773,0.238652,2.517,2.52881
0.0593468,0.238652,2.517,2.52899
0.0675164,0.238652,2.517,2.52919
0.075686,0.238652,2.517,2.52942
0.0838555,0.238652,2.517,2.52968
0.0920251,0.238652,2.517,2.52996
0.100195,0.238652,2.517,2.53027
0.108364,0.238652,2.517,2.53061
0.1157,0.236945,2.499,2.51287
0.123811,0.236945,2.499,2.51326
0.131923,0.236945,2.499,2.51367
0.140034,0.236945,2.499,2.51411
0.148145,0.236945,2.499,2.51458
0.156256,0.236945,2.499,2.51507
0.164367,0.236945,2.499,2.51558
nan,nan,nan,NaN
nan,nan,nan,NaN
nan,nan,nan,NaN
nan,nan,nan,NaN
nan,nan,nan,NaN
nan,nan,nan,NaN
nan,nan,nan,NaN
nan,nan,nan,NaN
nan,nan,nan,NaN
nan,nan,nan,NaN
nan,nan,nan,NaN
nan,nan,nan,NaN
nan,nan,nan,NaN
nan,nan,nan,NaN
nan,nan,nan,NaN
nan,nan,nan,NaN
nan,nan,nan,NaN
nan,nan,nan,NaN
nan,nan,nan,NaN
nan,nan,nan,NaN
nan,nan,nan,NaN
nan,nan,nan,NaN
nan,nan,nan,NaN
nan,nan,nan,NaN
nan,nan,nan,NaN
nan,nan,nan,NaN
nan,nan,nan,NaN
nan,nan,nan,NaN
nan,nan,nan,NaN
nan,nan,nan,NaN
nan,nan,nan,NaN
0.406112,0.22699,2.394,2.43879
0.413882,0.22699,2.394,2.44009
0.421652,0.22699,2.394,2.44142
0.426373,0.225378,2.377,2.42543
0.434088,0.225378,2.377,2.4268
0.441803,0.225378,2.377,2.42819
0.449519,0.225378,2.377,2.42961
0.457234,0.225378,2.377,2.43105
0.464949,0.225378,2.377,2.43251
0.472664,0.225378,2.377,2.434
0.480379,0.225378,2.377,2.43551
0.488094,0.225378,2.377,2.43704
0.49581,0.225378,2.377,2.4386
0.503525,0.225378,2.377,2.44018
0.51124,0.225378,2.377,2.44178
0.518955,0.225378,2.377,2.44341
0.52667,0.225378,2.377,2.44506
0.534385,0.225378,2.377,2.44673
0.5421,0.225378,2.377,2.44843
0.546115,0.223861,2.361,2.43365
0.553778,0.223861,2.361,2.43539
0.553832,0.220827,2.329,2.40411
0.561391,0.220827,2.329,2.40586
0.56895,0.220827,2.329,2.40764
0.561162,0.214948,2.267,2.34529
0.568521,0.214948,2.267,2.34706
0.564701,0.210776,2.223,2.30327
0.560854,0.206699,2.18,2.26046
0.56793,0.206699,2.18,2.26223
0.571577,0.205467,2.167,2.25051
0.574872,0.204139,2.153,2.23776
0.58186,0.204139,2.153,2.23956
0.581464,0.201579,2.126,2.21328
0.584767,0.200346,2.113,2.20156
0.591625,0.200346,2.113,2.20339
0.598483,0.200346,2.113,2.20524
0.605341,0.200346,2.113,2.20711
0.6122,0.200346,2.113,2.209
0.622867,0.201579,2.126,2.22452
0.629767,0.201579,2.126,2.22646
0.64086,0.202906,2.14,2.24309
0.647806,0.202906,2.14,2.24509
0.654752,0.202906,2.14,2.2471
0.670046,0.205467,2.167,2.27751
0.681142,0.206699,2.18,2.29327
0.688217,0.206699,2.18,2.29538
0.704542,0.209449,2.209,2.32807
0.716223,0.210776,2.223,2.34502
0.727994,0.212104,2.237,2.36202
0.735255,0.212104,2.237,2.36427
0.757452,0.21637,2.282,2.41414
0.764859,0.21637,2.282,2.41647
0.772266,0.21637,2.282,2.41883
nan,nan,nan,NaN
nan,nan,nan,NaN
nan,nan,nan,NaN
nan,nan,nan,NaN
0.861078,0.230214,2.428,2.58643
0.868959,0.230214,2.428,2.58907
0.8707,0.228602,2.411,2.57358
0.878526,0.228602,2.411,2.57624
0.886351,0.228602,2.411,2.57891
0.887872,0.22699,2.394,2.56341
0.895642,0.22699,2.394,2.56611
0.903413,0.22699,2.394,2.56884
0.911183,0.22699,2.394,2.57158
0.918953,0.22699,2.394,2.57434
0.926724,0.22699,2.394,2.57713
0.934494,0.22699,2.394,2.57993
0.942264,0.22699,2.394,2.58275
0.950035,0.22699,2.394,2.5856
0.957805,0.22699,2.394,2.58846
0.965575,0.22699,2.394,2.59135
0.973346,0.22699,2.394,2.59426
0.988083,0.228602,2.411,2.61562
0.995908,0.228602,2.411,2.61859
1.01081,0.230214,2.428,2.64006
1.01869,0.230214,2.428,2.64309
1.02657,0.230214,2.428,2.64614
1.03445,0.230214,2.428,2.6492
1.04963,0.231825,2.445,2.67086
1.05757,0.231825,2.445,2.67399
1.0655,0.231825,2.445,2.67714
1.07344,0.231825,2.445,2.68031
1.08138,0.231825,2.445,2.68349
1.08931,0.231825,2.445,2.6867
1.09725,0.231825,2.445,2.68993
1.10518,0.231825,2.445,2.69318
1.11312,0.231825,2.445,2.69644
1.12105,0.231825,2.445,2.69973
1.12899,0.231825,2.445,2.70303
1.13693,0.231825,2.445,2.70636
1.14486,0.231825,2.445,2.7097
1.1528,0.231825,2.445,2.71306
1.16073,0.231825,2.445,2.71644
1.16867,0.231825,2.445,2.71985
1.17661,0.231825,2.445,2.72326
1.18454,0.231825,2.445,2.7267
1.19248,0.231825,2.445,2.73016
1.20041,0.231825,2.445,2.73364
1.20835,0.231825,2.445,2.73713
1.21629,0.231825,2.445,2.74064
1.22422,0.231825,2.445,2.74417
1.23216,0.231825,2.445,2.74772
1.24009,0.231825,2.445,2.75129
1.25722,0.233532,2.463,2.77516
1.26521,0.233532,2.463,2.77879
1.28251,0.235239,2.481,2.80277
1.29056,0.235239,2.481,2.80647
1.29862,0.235239,2.481,2.81018
1.31615,0.236945,2.499,2.83432
1.32426,0.236945,2.499,2.8381
1.36223,0.242255,2.555,2.90558
1.3909,0.245858,2.593,2.95275
1.39932,0.245858,2.593,2.95672
1.42945,0.249651,2.633,3.00638
1.46094,0.253633,2.675,3.05848
1.49269,0.257615,2.717,3.11072
1.50151,0.257615,2.717,3.11496
1.53479,0.261787,2.761,3.16974
1.56891,0.266054,2.806,3.22582
1.57802,0.266054,2.806,3.23026
1.60014,0.268235,2.829,3.26123
1.62297,0.27051,2.853,3.29345
1.63223,0.27051,2.853,3.29802
1.64149,0.27051,2.853,3.30262
1.65075,0.27051,2.853,3.30723
1.66001,0.27051,2.853,3.31186
1.65523,0.268235,2.829,3.28861
1.65088,0.266054,2.806,3.26647
1.65999,0.266054,2.806,3.27108
1.65541,0.263873,2.783,3.24886
1.65129,0.261787,2.761,3.22776
1.66025,0.261787,2.761,3.23235
1.65591,0.259701,2.739,3.21117
1.65143,0.257615,2.717,3.18993
1.66025,0.257615,2.717,3.19451
1.65617,0.255624,2.696,3.17437
1.65195,0.253633,2.675,3.15419
1.66063,0.253633,2.675,3.15874
1.6431,0.249651,2.633,3.11365
1.6391,0.247754,2.613,3.09448
1.64759,0.247754,2.613,3.09898
1.64339,0.245858,2.593,3.07975
1.6397,0.244057,2.574,3.06164
1.63589,0.242255,2.555,3.04349
1.64419,0.242255,2.555,3.04796
1.6279,0.238652,2.517,3.00704
1.63607,0.238652,2.517,3.01147
1.64424,0.238652,2.517,3.01592
1.64059,0.236945,2.499,2.99878
1.63683,0.235239,2.481,2.9816
1.64488,0.235239,2.481,2.98602
1.64094,0.233532,2.463,2.96877
1.6255,0.230214,2.428,2.93095
1.63339,0.230214,2.428,2.93532
1.62977,0.228602,2.411,2.91913
1.62605,0.22699,2.394,2.9029
-1.70866,0.241524,2.463,3.00736
-1.68824,0.239759,2.445,2.98088
-1.6803,0.239759,2.445,2.9764
-1.67237,0.239759,2.445,2.97192
-1.66443,0.239759,2.445,2.96746
-1.6565,0.239759,2.445,2.96302
-1.64856,0.239759,2.445,2.95859
-1.64063,0.239759,2.445,2.95418
-1.64471,0.241524,2.463,2.97149
-1.64868,0.243289,2.481,2.98876
-1.64062,0.243289,2.481,2.98433
-1.63257,0.243289,2.481,2.97991
-1.6363,0.245054,2.499,2.99709
-1.62819,0.245054,2.499,2.99267
-1.63175,0.246819,2.517,3.00979
-1.62358,0.246819,2.517,3.00537
-1.61541,0.246819,2.517,3.00096
-1.61938,0.248683,2.536,3.01919
-1.62322,0.250546,2.555,3.03737
-1.62693,0.252409,2.574,3.0555
-1.61858,0.252409,2.574,3.05106
-1.62211,0.254272,2.593,3.06913
-1.61369,0.254272,2.593,3.06469
-1.60528,0.254272,2.593,3.06026
-1.59686,0.254272,2.593,3.05586
-1.58844,0.254272,2.593,3.05147
-1.56845,0.252409,2.574,3.02477
-1.56009,0.252409,2.574,3.02044
-1.54029,0.250546,2.555,2.99387
-1.53199,0.250546,2.555,2.98962
-1.51237,0.248683,2.536,2.96317
-1.49287,0.246819,2.517,2.93681
-1.4847,0.246819,2.517,2.93267
-1.45541,0.243289,2.481,2.88665
-1.42636,0.239759,2.445,2.84078
-1.41842,0.239759,2.445,2.8368
-1.40068,0.238092,2.428,2.81314
-1.38305,0.236425,2.411,2.78956
-1.37522,0.236425,2.411,2.78569
-1.35775,0.234758,2.394,2.76222
-1.3404,0.233091,2.377,2.73882
-1.33268,0.233091,2.377,2.73505
-1.32497,0.233091,2.377,2.7313
-1.31725,0.233091,2.377,2.72757
-1.3189,0.234758,2.394,2.74333
-1.31113,0.234758,2.394,2.7396
-1.30336,0.234758,2.394,2.73589
-1.31399,0.238092,2.428,2.771
-1.31526,0.239759,2.445,2.78665
-1.30732,0.239759,2.445,2.78291
-1.31852,0.243289,2.481,2.82011
-1.31997,0.245054,2.499,2.83679
-1.32131,0.246819,2.517,2.85343
-1.31314,0.246819,2.517,2.84966
-1.32467,0.250546,2.555,2.88887
-1.33596,0.254272,2.593,2.92798
-1.32754,0.254272,2.593,2.92415
-1.3293,0.256233,2.613,2.94287
-1.32082,0.256233,2.613,2.93904
-1.31234,0.256233,2.613,2.93524
-1.31383,0.258194,2.633,2.9539
-1.30529,0.258194,2.633,2.95011
-1.29674,0.258194,2.633,2.94634
-1.2882,0.258194,2.633,2.94258
-1.26993,0.256233,2.613,2.91653
-1.26145,0.256233,2.613,2.91285
-1.25297,0.256233,2.613,2.90918
-1.23496,0.254272,2.593,2.8833
-1.22654,0.254272,2.593,2.87971
-1.2092,0.252409,2.574,2.85506
-1.20085,0.252409,2.574,2.85153
-1.18369,0.250546,2.555,2.827
-1.1754,0.250546,2.555,2.82354
-1.15843,0.248683,2.536,2.79912
-1.14158,0.246819,2.517,2.77478
-1.13341,0.246819,2.517,2.77143
-1.11719,0.245054,2.499,2.7483
-1.10908,0.245054,2.499,2.74502
-1.10097,0.245054,2.499,2.74175
-1.08499,0.243289,2.481,2.71878
-1.06912,0.241524,2.463,2.69587
-1.06113,0.241524,2.463,2.69271
-1.05313,0.241524,2.463,2.68957
-1.04514,0.241524,2.463,2.68645
-1.02956,0.239759,2.445,2.66374
-1.02163,0.239759,2.445,2.66068
-1.01369,0.239759,2.445,2.65765
-1.00576,0.239759,2.445,2.65463
-0.997821,0.239759,2.445,2.65163
-0.989885,0.239759,2.445,2.64866
-0.981949,0.239759,2.445,2.6457
-0.974013,0.239759,2.445,2.64277
-0.966077,0.239759,2.445,2.63985
-0.951479,0.238092,2.428,2.61862
-0.943599,0.238092,2.428,2.61577
-0.935718,0.238092,2.428,2.61294
-0.927837,0.238092,2.428,2.61013
-0.913515,0.236425,2.411,2.58908
-0.90569,0.236425,2.411,2.58633
-0.897864,0.236425,2.411,2.5836
-0.890039,0.236425,2.411,2.58089
-0.882213,0.236425,2.411,2.5782
-0.874388,0.236425,2.411,2.57553
-0.860452,0.234758,2.394,2.55475
-0.852682,0.234758,2.394,2.55214
-0.844912,0.234758,2.394,2.54955
-0.837141,0.234758,2.394,2.54699
-0.829371,0.234758,2.394,2.54445
-0.821601,0.234758,2.394,2.54192
-0.81383,0.234758,2.394,2.53942
-0.80606,0.234758,2.394,2.53694
-0.803958,0.236425,2.411,2.55248
-0.796133,0.236425,2.411,2.55003
-0.788307,0.236425,2.411,2.5476
-0.780482,0.236425,2.411,2.54519
-0.772656,0.236425,2.411,2.5428
-0.770224,0.238092,2.428,2.55834
-0.762343,0.238092,2.428,2.55598
-0.754462,0.238092,2.428,2.55364
-0.746581,0.238092,2.428,2.55132
-0.743873,0.239759,2.445,2.56688
-0.735937,0.239759,2.445,2.56459
-0.728001,0.239759,2.445,2.56232
-0.720065,0.239759,2.445,2.56008
-0.712129,0.239759,2.445,2.55786
-0.699297,0.238092,2.428,2.53789
-0.691417,0.238092,2.428,2.53573
-0.688322,0.239759,2.445,2.55133
-0.680386,0.239759,2.445,2.5492
-0.677401,0.241524,2.463,2.56585
-0.669406,0.241524,2.463,2.56375
-0.661412,0.241524,2.463,2.56167
-0.653418,0.241524,2.463,2.55962
-0.645424,0.241524,2.463,2.55759
-0.637429,0.241524,2.463,2.55559
-0.629435,0.241524,2.463,2.5536
-0.621441,0.241524,2.463,2.55164
-0.613446,0.241524,2.463,2.54971
-0.601027,0.239759,2.445,2.52918
-0.593092,0.239759,2.445,2.5273
-0.585156,0.239759,2.445,2.52545
-0.57722,0.239759,2.445,2.52363
-0.569284,0.239759,2.445,2.52182
-0.561348,0.239759,2.445,2.52004
-0.553412,0.239759,2.445,2.51829
-0.545476,0.239759,2.445,2.51656
-0.53754,0.239759,2.445,2.51485
-0.529605,0.239759,2.445,2.51316
-0.521669,0.239759,2.445,2.5115
-0.517515,0.241524,2.463,2.52834
-0.509521,0.241524,2.463,2.52672
-0.501526,0.241524,2.463,2.52512
-0.497139,0.243289,2.481,2.54199
-0.489086,0.243289,2.481,2.54042
-0.481034,0.243289,2.481,2.53889
-0.472981,0.243289,2.481,2.53737
-0.464928,0.243289,2.481,2.53588
-0.456875,0.243289,2.481,2.53442
-0.448823,0.243289,2.481,2.53298
-0.44077,0.243289,2.481,2.53157
-0.432717,0.243289,2.481,2.53018
-0.424665,0.243289,2.481,2.52881
-0.416612,0.243289,2.481,2.52747
-0.411523,0.245054,2.499,2.54449
-0.403412,0.245054,2.499,2.54319
-0.395301,0.245054,2.499,2.54191
-0.389979,0.246819,2.517,2.55896
-0.381809,0.246819,2.517,2.55773
-0.37364,0.246819,2.517,2.55652
-0.36547,0.246819,2.517,2.55534
-0.357301,0.246819,2.517,2.55419
-0.349131,0.246819,2.517,2.55306
-0.343535,0.248683,2.536,2.57122
-0.335304,0.248683,2.536,2.57013
-0.327073,0.248683,2.536,2.56907
-0.318842,0.248683,2.536,2.56803
-0.312937,0.250546,2.555,2.58626
-0.304645,0.250546,2.555,2.58527
-0.296352,0.250546,2.555,2.5843
-0.288059,0.250546,2.555,2.58337
-0.279766,0.250546,2.555,2.58245
-0.271473,0.250546,2.555,2.58157
-0.26318,0.250546,2.555,2.58071
-0.254887,0.250546,2.555,2.57988
-0.246594,0.250546,2.555,2.57907
-0.238301,0.250546,2.555,2.57829
-0.230009,0.250546,2.555,2.57754
-0.221716,0.250546,2.555,2.57681
-0.211836,0.248683,2.536,2.55695
-0.203604,0.248683,2.536,2.55629
-0.195373,0.248683,2.536,2.55564
-0.187142,0.248683,2.536,2.55503
-0.178911,0.248683,2.536,2.55444
-0.170679,0.248683,2.536,2.55387
-0.162448,0.248683,2.536,2.55334
-0.154217,0.248683,2.536,2.55283
-0.145986,0.248683,2.536,2.55234
-0.138787,0.250546,2.555,2.571
-0.130494,0.250546,2.555,2.57057
-0.122201,0.250546,2.555,2.57016
-0.113908,0.250546,2.555,2.56978
-0.105615,0.250546,2.555,2.56943
-0.0973222,0.250546,2.555,2.5691
-0.0890293,0.250546,2.555,2.5688
-0.0807364,0.250546,2.555,2.56852
-0.0724435,0.250546,2.555,2.56828
-0.0641506,0.250546,2.555,2.56806
-0.0558577,0.250546,2.555,2.56786
-0.0475648,0.250546,2.555,2.5677
-0.0392719,0.250546,2.555,2.56756
-0.030979,0.250546,2.555,2.56744
-0.0225174,0.248683,2.536,2.54826
-0.0142862,0.248683,2.536,2.5482
-0.00605498,0.248683,2.536,2.54817
0.00217625,0.248683,2.536,2.54816
0.0104075,0.248683,2.536,2.54819
0.0186387,0.248683,2.536,2.54823
0.0268699,0.248683,2.536,2.54831
0.0351011,0.248683,2.536,2.54841
0.0433324,0.248683,2.536,2.54853
0.0511773,0.246819,2.517,2.52959
0.0593468,0.246819,2.517,2.52977
0.0675164,0.246819,2.517,2.52997
0.075686,0.246819,2.517,2.53021
0.0838555,0.246819,2.517,2.53046
0.0920251,0.246819,2.517,2.53075
0.100195,0.246819,2.517,2.53106
0.108364,0.246819,2.517,2.53139
0.116534,0.246819,2.517,2.53176
0.124703,0.246819,2.517,2.53215
0.131923,0.245054,2.499,2.51445
0.140034,0.245054,2.499,2.51489
0.148145,0.245054,2.499,2.51535
0.156256,0.245054,2.499,2.51584
0.164367,0.245054,2.499,2.51636
nan,nan,nan,NaN
nan,nan,nan,NaN
nan,nan,nan,NaN
nan,nan,nan,NaN
nan,nan,nan,NaN
nan,nan,nan,NaN
nan,nan,nan,NaN
nan,nan,nan,NaN
nan,nan,nan,NaN
nan,nan,nan,NaN
nan,nan,nan,NaN
nan,nan,nan,NaN
nan,nan,nan,NaN
nan,nan,nan,NaN
nan,nan,nan,NaN
nan,nan,nan,NaN
nan,nan,nan,NaN
nan,nan,nan,NaN
nan,nan,nan,NaN
nan,nan,nan,NaN
nan,nan,nan,NaN
nan,nan,nan,NaN
nan,nan,nan,NaN
nan,nan,nan,NaN
nan,nan,nan,NaN
nan,nan,nan,NaN
nan,nan,nan,NaN
nan,nan,nan,NaN
nan,nan,nan,NaN
nan,nan,nan,NaN
nan,nan,nan,NaN
0.406112,0.234758,2.394,2.43952
0.413882,0.234758,2.394,2.44083
0.421652,0.234758,2.394,2.44216
0.426373,0.233091,2.377,2.42616
0.434088,0.233091,2.377,2.42753
0.441803,0.233091,2.377,2.42892
0.449519,0.233091,2.377,2.43033
0.457234,0.233091,2.377,2.43177
0.464949,0.233091,2.377,2.43324
0.472664,0.233091,2.377,2.43472
0.480379,0.233091,2.377,2.43623
0.488094,0.233091,2.377,2.43776
0.49581,0.233091,2.377,2.43932
0.503525,0.233091,2.377,2.4409
0.51124,0.233091,2.377,2.4425
0.518955,0.233091,2.377,2.44413
0.52667,0.233091,2.377,2.44578
0.534385,0.233091,2.377,2.44745
0.5421,0.233091,2.377,2.44915
0.546115,0.231522,2.361,2.43437
0.553778,0.231522,2.361,2.4361
0.557636,0.229953,2.345,2.42133
0.565248,0.229953,2.345,2.4231
0.572859,0.229953,2.345,2.42489
0.564875,0.223775,2.282,2.3615
0.572282,0.223775,2.282,2.36328
0.568258,0.219362,2.237,2.31845
0.564456,0.215146,2.194,2.27564
0.571577,0.215146,2.194,2.27742
0.571577,0.212498,2.167,2.25117
0.574872,0.211125,2.153,2.23841
0.58186,0.211125,2.153,2.24021
0.581464,0.208478,2.126,2.21392
0.584767,0.207203,2.113,2.20219
0.591625,0.207203,2.113,2.20402
0.598483,0.207203,2.113,2.20588
0.605341,0.207203,2.113,2.20775
0.6122,0.207203,2.113,2.20964
0.622867,0.208478,2.126,2.22515
0.629767,0.208478,2.126,2.22709
0.64086,0.20985,2.14,2.24373
0.647806,0.20985,2.14,2.24573
0.654752,0.20985,2.14,2.24774
0.670046,0.212498,2.167,2.27816
0.67708,0.212498,2.167,2.28024
0.684113,0.212498,2.167,2.28234
0.699758,0.215146,2.194,2.31292
0.711712,0.216617,2.209,2.33091
0.718882,0.216617,2.209,2.33311
0.726052,0.216617,2.209,2.33533
0.742516,0.219362,2.237,2.3672
0.754804,0.220833,2.252,2.38537
0.762114,0.220833,2.252,2.3877
nan,nan,nan,NaN
nan,nan,nan,NaN
nan,nan,nan,NaN
0.84125,0.234758,2.394,2.54834
0.84902,0.234758,2.394,2.55092
0.856791,0.234758,2.394,2.55351
0.864561,0.234758,2.394,2.55613
0.866137,0.233091,2.377,2.5406
0.873852,0.233091,2.377,2.54324
0.881567,0.233091,2.377,2.5459
0.889282,0.233091,2.377,2.54858
0.896997,0.233091,2.377,2.55129
0.898623,0.231522,2.361,2.53682
0.906286,0.231522,2.361,2.53954
0.913949,0.231522,2.361,2.54229
0.921612,0.231522,2.361,2.54505
0.929276,0.231522,2.361,2.54784
0.936939,0.231522,2.361,2.55064
0.951003,0.233091,2.377,2.57077
0.958719,0.233091,2.377,2.57364
0.973346,0.234758,2.394,2.59495
0.988083,0.236425,2.411,2.61632
0.995908,0.236425,2.411,2.61928
1.00373,0.236425,2.411,2.62227
1.01869,0.238092,2.428,2.64379
1.02657,0.238092,2.428,2.64683
1.03445,0.238092,2.428,2.6499
1.04963,0.239759,2.445,2.67156
1.05757,0.239759,2.445,2.67469
1.0655,0.239759,2.445,2.67784
1.07344,0.239759,2.445,2.681
1.08138,0.239759,2.445,2.68419
1.08931,0.239759,2.445,2.6874
1.09725,0.239759,2.445,2.69062
1.10518,0.239759,2.445,2.69387
1.11312,0.239759,2.445,2.69714
1.12105,0.239759,2.445,2.70042
1.12899,0.239759,2.445,2.70373
1.13693,0.239759,2.445,2.70705
1.14486,0.239759,2.445,2.71039
1.1528,0.239759,2.445,2.71375
1.16073,0.239759,2.445,2.71713
1.16867,0.239759,2.445,2.72053
1.17661,0.239759,2.445,2.72395
1.18454,0.239759,2.445,2.72739
1.19248,0.239759,2.445,2.73084
1.20041,0.239759,2.445,2.73432
1.21725,0.241524,2.463,2.75797
1.22524,0.241524,2.463,2.76151
1.23323,0.241524,2.463,2.76506
1.24123,0.241524,2.463,2.76864
1.24922,0.241524,2.463,2.77223
1.25722,0.241524,2.463,2.77584
1.26521,0.241524,2.463,2.77947
1.28251,0.243289,2.481,2.80346
1.29056,0.243289,2.481,2.80715
1.29862,0.243289,2.481,2.81086
1.31615,0.245054,2.499,2.83501
1.32426,0.245054,2.499,2.83879
1.36223,0.250546,2.555,2.90628
1.3909,0.254272,2.593,2.95346
1.39932,0.254272,2.593,2.95743
1.42945,0.258194,2.633,3.00711
1.46094,0.262313,2.675,3.05921
1.49269,0.266432,2.717,3.11146
1.50151,0.266432,2.717,3.1157
1.53479,0.270746,2.761,3.17049
1.56891,0.275159,2.806,3.22658
1.57802,0.275159,2.806,3.23102
1.60014,0.277414,2.829,3.262
1.62297,0.279768,2.853,3.29422
1.63223,0.279768,2.853,3.2988
1.64149,0.279768,2.853,3.30339
1.65075,0.279768,2.853,3.308
1.66001,0.279768,2.853,3.31263
1.65523,0.277414,2.829,3.28937
1.65088,0.275159,2.806,3.26722
1.65999,0.275159,2.806,3.27184
1.65541,0.272904,2.783,3.24961
1.65129,0.270746,2.761,3.2285
1.66025,0.270746,2.761,3.23309
1.65591,0.268589,2.739,3.2119
1.65143,0.266432,2.717,3.19066
1.66025,0.266432,2.717,3.19523
1.65617,0.264372,2.696,3.17509
1.65195,0.262313,2.675,3.1549
1.66063,0.262313,2.675,3.15945
1.6431,0.258194,2.633,3.11434
1.6391,0.256233,2.613,3.09517
1.64759,0.256233,2.613,3.09967
1.64339,0.254272,2.593,3.08043
1.6397,0.252409,2.574,3.06232
1.63589,0.250546,2.555,3.04417
1.64419,0.250546,2.555,3.04863
1.6279,0.246819,2.517,3.0077
1.62437,0.245054,2.499,2.99059
1.63248,0.245054,2.499,2.995
1.62878,0.243289,2.481,2.97783
1.62495,0.241524,2.463,2.9606
1.63295,0.241524,2.463,2.965
1.62895,0.239759,2.445,2.94771
1.6255,0.238092,2.428,2.93158
1.63339,0.238092,2.428,2.93595
1.62977,0.236425,2.411,2.91976
1.62605,0.234758,2.394,2.90351
-1.69618,0.247693,2.445,2.98603
-1.68824,0.247693,2.445,2.98153
-1.6803,0.247693,2.445,2.97705
-1.66074,0.24597,2.428,2.95191
-1.65286,0.24597,2.428,2.94748
-1.6565,0.247693,2.445,2.96367
-1.64856,0.247693,2.445,2.95925
-1.64063,0.247693,2.445,2.95483
-1.63269,0.247693,2.445,2.95043
-1.63672,0.249516,2.463,2.96774
-1.62872,0.249516,2.463,2.96334
-1.63257,0.25134,2.481,2.98057
-1.62452,0.25134,2.481,2.97617
-1.61647,0.25134,2.481,2.97178
-1.62008,0.253163,2.499,2.98894
-1.62358,0.254987,2.517,3.00605
-1.61541,0.254987,2.517,3.00164
-1.61938,0.256911,2.536,3.01988
-1.62322,0.258836,2.555,3.03807
-1.62693,0.260761,2.574,3.0562
-1.61858,0.260761,2.574,3.05176
-1.61022,0.260761,2.574,3.04734
-1.61369,0.262686,2.593,3.0654
-1.60528,0.262686,2.593,3.06097
-1.59686,0.262686,2.593,3.05657
-1.58844,0.262686,2.593,3.05218
-1.56845,0.260761,2.574,3.02548
-1.56009,0.260761,2.574,3.02115
-1.54029,0.258836,2.555,2.99458
-1.53199,0.258836,2.555,2.99032
-1.51237,0.256911,2.536,2.96388
-1.49287,0.254987,2.517,2.93751
-1.4847,0.254987,2.517,2.93337
-1.45541,0.25134,2.481,2.88734
-1.42636,0.247693,2.445,2.84146
-1.41842,0.247693,2.445,2.83748
-1.40068,0.24597,2.428,2.81382
-1.38305,0.244248,2.411,2.79023
-1.37522,0.244248,2.411,2.78636
-1.35775,0.242526,2.394,2.76289
-1.3404,0.240804,2.377,2.73949
-1.33268,0.240804,2.377,2.73572
-1.32497,0.240804,2.377,2.73197
-1.31725,0.240804,2.377,2.72824
-1.3189,0.242526,2.394,2.744
-1.31113,0.242526,2.394,2.74028
-1.30336,0.242526,2.394,2.73657
-1.31399,0.24597,2.428,2.77169
-1.31526,0.247693,2.445,2.78734
-1.30732,0.247693,2.445,2.78361
-1.31852,0.25134,2.481,2.82082
-1.31997,0.253163,2.499,2.8375
-1.32131,0.254987,2.517,2.85415
-1.31314,0.254987,2.517,2.85038
-1.32467,0.258836,2.555,2.8896
-1.33596,0.262686,2.593,2.92873
-1.32754,0.262686,2.593,2.9249
-1.3293,0.264712,2.613,2.94362
-1.33093,0.266738,2.633,2.9623
-1.32238,0.266738,2.633,2.95847
-1.31383,0.266738,2.633,2.95466
-1.30529,0.266738,2.633,2.95087
-1.29674,0.266738,2.633,2.9471
-1.2882,0.266738,2.633,2.94335
-1.27965,0.266738,2.633,2.93962
-1.2711,0.266738,2.633,2.93591
-1.25297,0.264712,2.613,2.90994
-1.24449,0.264712,2.613,2.9063
-1.23601,0.264712,2.613,2.90268
-1.21813,0.262686,2.593,2.87689
-1.20085,0.260761,2.574,2.85228
-1.18369,0.258836,2.555,2.82775
-1.1754,0.258836,2.555,2.82428
-1.15843,0.256911,2.536,2.79987
-1.14158,0.254987,2.517,2.77552
-1.13341,0.254987,2.517,2.77217
-1.11719,0.253163,2.499,2.74904
-1.10109,0.25134,2.481,2.72597
-1.09304,0.25134,2.481,2.72273
-1.07712,0.249516,2.463,2.69978
-1.06912,0.249516,2.463,2.6966
-1.06113,0.249516,2.463,2.69344
-1.04544,0.247693,2.445,2.67064
-1.0375,0.247693,2.445,2.66754
-1.02956,0.247693,2.445,2.66447
-1.02163,0.247693,2.445,2.66141
-1.00664,0.24597,2.428,2.63989
-0.998763,0.24597,2.428,2.63689
-0.990883,0.24597,2.428,2.63392
-0.983002,0.24597,2.428,2.63097
-0.975121,0.24597,2.428,2.62803
-0.967241,0.24597,2.428,2.62512
-0.95936,0.24597,2.428,2.62222
-0.951479,0.24597,2.428,2.61935
-0.943599,0.24597,2.428,2.6165
-0.935718,0.24597,2.428,2.61367
-0.921341,0.244248,2.411,2.59258
-0.913515,0.244248,2.411,2.5898
-0.90569,0.244248,2.411,2.58705
-0.897864,0.244248,2.411,2.58433
-0.890039,0.244248,2.411,2.58162
-0.882213,0.244248,2.411,2.57893
-0.868223,0.242526,2.394,2.5581
-0.860452,0.242526,2.394,2.55547
-0.852682,0.242526,2.394,2.55287
-0.844912,0.242526,2.394,2.55028
-0.837141,0.242526,2.394,2.54772
-0.829371,0.242526,2.394,2.54517
-0.821601,0.242526,2.394,2.54265
-0.81383,0.242526,2.394,2.54015
-0.80606,0.242526,2.394,2.53767
-0.803958,0.244248,2.411,2.55322
-0.796133,0.244248,2.411,2.55077
-0.788307,0.244248,2.411,2.54833
-0.780482,0.244248,2.411,2.54592
-0.772656,0.244248,2.411,2.54354
-0.770224,0.24597,2.428,2.55909
-0.762343,0.24597,2.428,2.55673
-0.754462,0.24597,2.428,2.55439
-0.746581,0.24597,2.428,2.55207
-0.743873,0.247693,2.445,2.56763
-0.735937,0.247693,2.445,2.56534
-0.728001,0.247693,2.445,2.56308
-0.720065,0.247693,2.445,2.56083
-0.712129,0.247693,2.445,2.55861
-0.704194,0.247693,2.445,2.55642
-0.696258,0.247693,2.445,2.55424
-0.688322,0.247693,2.445,2.55209
-0.680386,0.247693,2.445,2.54996
-0.677401,0.249516,2.463,2.56661
-0.669406,0.249516,2.463,2.56451
-0.661412,0.249516,2.463,2.56244
-0.653418,0.249516,2.463,2.56039
-0.645424,0.249516,2.463,2.55836
-0.637429,0.249516,2.463,2.55635
-0.629435,0.249516,2.463,2.55437
-0.621441,0.249516,2.463,2.55241
-0.613446,0.249516,2.463,2.55048
-0.605452,0.249516,2.463,2.54857
-0.597458,0.249516,2.463,2.54668
-0.585156,0.247693,2.445,2.52622
-0.57722,0.247693,2.445,2.52439
-0.569284,0.247693,2.445,2.52259
-0.561348,0.247693,2.445,2.52081
-0.553412,0.247693,2.445,2.51906
-0.545476,0.247693,2.445,2.51732
-0.53754,0.247693,2.445,2.51562
-0.529605,0.247693,2.445,2.51393
-0.521669,0.247693,2.445,2.51227
-0.517515,0.249516,2.463,2.52912
-0.509521,0.249516,2.463,2.5275
-0.505192,0.25134,2.481,2.54436
-0.497139,0.25134,2.481,2.54277
-0.489086,0.25134,2.481,2.54121
-0.481034,0.25134,2.481,2.53967
-0.472981,0.25134,2.481,2.53816
-0.464928,0.25134,2.481,2.53667
-0.46019,0.253163,2.499,2.5536
-0.448823,0.25134,2.481,2.53377
-0.44077,0.25134,2.481,2.53235
-0.432717,0.25134,2.481,2.53096
-0.424665,0.25134,2.481,2.5296
-0.416612,0.25134,2.481,2.52826
-0.411523,0.253163,2.499,2.54528
-0.403412,0.253163,2.499,2.54398
-0.395301,0.253163,2.499,2.54271
-0.389979,0.254987,2.517,2.55976
-0.381809,0.254987,2.517,2.55853
-0.37364,0.254987,2.517,2.55733
-0.36547,0.254987,2.517,2.55614
-0.357301,0.254987,2.517,2.55499
-0.349131,0.254987,2.517,2.55386
-0.343535,0.256911,2.536,2.57203
-0.335304,0.256911,2.536,2.57094
-0.327073,0.256911,2.536,2.56988
-0.318842,0.256911,2.536,2.56884
-0.312937,0.258836,2.555,2.58707
-0.304645,0.258836,2.555,2.58608
-0.296352,0.258836,2.555,2.58512
-0.288059,0.258836,2.555,2.58418
-0.279766,0.258836,2.555,2.58327
-0.271473,0.258836,2.555,2.58239
-0.26318,0.258836,2.555,2.58153
-0.254887,0.258836,2.555,2.5807
-0.246594,0.258836,2.555,2.57989
-0.238301,0.258836,2.555,2.57911
-0.228298,0.256911,2.536,2.55918
-0.220067,0.256911,2.536,2.55846
-0.211836,0.256911,2.536,2.55777
-0.203604,0.256911,2.536,2.5571
-0.195373,0.256911,2.536,2.55646
-0.187142,0.256911,2.536,2.55584
-0.178911,0.256911,2.536,2.55525
-0.170679,0.256911,2.536,2.55469
-0.162448,0.256911,2.536,2.55415
-0.154217,0.256911,2.536,2.55364
-0.145986,0.256911,2.536,2.55316
-0.137755,0.256911,2.536,2.5527
-0.129523,0.256911,2.536,2.55227
-0.122201,0.258836,2.555,2.57098
-0.113908,0.258836,2.555,2.5706
-0.105615,0.258836,2.555,2.57025
-0.0973222,0.258836,2.555,2.56992
-0.0890293,0.258836,2.555,2.56962
-0.0807364,0.258836,2.555,2.56935
-0.0724435,0.258836,2.555,2.5691
-0.0641506,0.258836,2.555,2.56888
-0.0558577,0.258836,2.555,2.56868
-0.0475648,0.258836,2.555,2.56852
-0.0392719,0.258836,2.555,2.56838
-0.030979,0.258836,2.555,2.56826
-0.0225174,0.256911,2.536,2.54908
-0.0142862,0.256911,2.536,2.54902
-0.00605498,0.256911,2.536,2.54899
0.00217625,0.256911,2.536,2.54898
0.0104075,0.256911,2.536,2.549
0.0186387,0.256911,2.536,2.54905
0.0268699,0.256911,2.536,2.54912
0.0351011,0.256911,2.536,2.54922
0.0433324,0.256911,2.536,2.54935
0.0511773,0.254987,2.517,2.5304
0.0593468,0.254987,2.517,2.53058
0.0675164,0.254987,2.517,2.53078
0.075686,0.254987,2.517,2.53101
0.0838555,0.254987,2.517,2.53127
0.0920251,0.254987,2.517,2.53156
0.100195,0.254987,2.517,2.53187
0.108364,0.254987,2.517,2.5322
0.116534,0.254987,2.517,2.53257
0.124703,0.254987,2.517,2.53295
0.131923,0.253163,2.499,2.51525
0.140034,0.253163,2.499,2.51569
0.148145,0.253163,2.499,2.51616
0.156256,0.253163,2.499,2.51665
0.164367,0.253163,2.499,2.51716
nan,nan,nan,NaN
nan,nan,nan,NaN
nan,nan,nan,NaN
nan,nan,nan,NaN
nan,nan,nan,NaN
nan,nan,nan,NaN
nan,nan,nan,NaN
nan,nan,nan,NaN
nan,nan,nan,NaN
nan,nan,nan,NaN
nan,nan,nan,NaN
nan,nan,nan,NaN
nan,nan,nan,NaN
nan,nan,nan,NaN
nan,nan,nan,NaN
nan,nan,nan,NaN
nan,nan,nan,NaN
nan,nan,nan,NaN
nan,nan,nan,NaN
nan,nan,nan,NaN
nan,nan,nan,NaN
nan,nan,nan,NaN
nan,nan,nan,NaN
nan,nan,nan,NaN
nan,nan,nan,NaN
nan,nan,nan,NaN
nan,nan,nan,NaN
nan,nan,nan,NaN
nan,nan,nan,NaN
nan,nan,nan,NaN
nan,nan,nan,NaN
0.408995,0.244248,2.411,2.45761
0.416821,0.244248,2.411,2.45893
0.424646,0.244248,2.411,2.46026
0.432472,0.244248,2.411,2.46163
0.437193,0.242526,2.394,2.44565
0.444963,0.242526,2.394,2.44705
0.452734,0.242526,2.394,2.44847
0.460504,0.242526,2.394,2.44992
0.468274,0.242526,2.394,2.45139
0.476045,0.242526,2.394,2.45289
0.483815,0.242526,2.394,2.45441
0.491585,0.242526,2.394,2.45595
0.499355,0.242526,2.394,2.45752
0.507126,0.242526,2.394,2.45911
0.514896,0.242526,2.394,2.46073
0.522667,0.242526,2.394,2.46236
0.530437,0.242526,2.394,2.46403
0.538207,0.242526,2.394,2.46571
0.5421,0.240804,2.377,2.4499
0.549816,0.240804,2.377,2.45161
0.553778,0.239183,2.361,2.43684
0.561441,0.239183,2.361,2.4386
nan,nan,nan,NaN
0.56895,0.235941,2.329,2.40907
0.564875,0.23118,2.282,2.36221
0.572282,0.23118,2.282,2.364
0.572068,0.228141,2.252,2.3347
0.568315,0.223784,2.209,2.29189
0.575485,0.223784,2.209,2.29367
0.575006,0.220847,2.18,2.26535
0.57861,0.21953,2.167,2.25364
0.585644,0.21953,2.167,2.25545
0.585293,0.216794,2.14,2.22916
0.588364,0.215376,2.126,2.2164
0.595265,0.215376,2.126,2.21824
0.598483,0.214059,2.113,2.20653
0.605341,0.214059,2.113,2.2084
0.6122,0.214059,2.113,2.21029
0.622867,0.215376,2.126,2.22581
