1.03376,0.144556,2.445,2.65849
1.0417,0.144556,2.445,2.66159
1.05736,0.14562,2.463,2.68432
1.06535,0.14562,2.463,2.68748
1.08119,0.146684,2.481,2.71032
1.09715,0.147748,2.499,2.73323
1.11322,0.148812,2.517,2.75621
1.12139,0.148812,2.517,2.75952
1.13809,0.149936,2.536,2.78371
1.14632,0.149936,2.536,2.78708
1.15455,0.149936,2.536,2.79048
1.17149,0.151059,2.555,2.81482
1.17978,0.151059,2.555,2.81829
1.18808,0.151059,2.555,2.82177
1.19637,0.151059,2.555,2.82527
1.20466,0.151059,2.555,2.82879
1.21296,0.151059,2.555,2.83233
1.22125,0.151059,2.555,2.83589
1.22954,0.151059,2.555,2.83947
1.23783,0.151059,2.555,2.84308
1.23686,0.149936,2.536,2.82553
1.24509,0.149936,2.536,2.82914
1.25332,0.149936,2.536,2.83277
1.2521,0.148812,2.517,2.81517
1.26027,0.148812,2.517,2.81882
1.26844,0.148812,2.517,2.82248
1.27661,0.148812,2.517,2.82616
1.29448,0.149936,2.536,2.85122
1.30271,0.149936,2.536,2.85497
1.32076,0.151059,2.555,2.88015
1.32906,0.151059,2.555,2.88396
1.34729,0.152182,2.574,2.90927
1.36566,0.153306,2.593,2.93465
1.37407,0.153306,2.593,2.93858
1.39315,0.154488,2.613,2.96522
1.42362,0.156912,2.654,3.0158
1.43224,0.156912,2.654,3.01988
1.45225,0.158154,2.675,3.0479
1.48387,0.160637,2.717,3.09996
1.49269,0.160637,2.717,3.1042
1.50151,0.160637,2.717,3.10845
1.52256,0.161938,2.739,3.13792
1.54375,0.163238,2.761,3.16748
1.55271,0.163238,2.761,3.17186
1.56167,0.163238,2.761,3.17625
1.58315,0.164539,2.783,3.20601
1.59218,0.164539,2.783,3.21048
1.60122,0.164539,2.783,3.21497
1.61025,0.164539,2.783,3.21948
1.61928,0.164539,2.783,3.22401
1.62831,0.164539,2.783,3.22856
1.6244,0.163238,2.761,3.20756
1.63337,0.163238,2.761,3.21211
1.64233,0.163238,2.761,3.21668
1.63813,0.161938,2.739,3.19559
1.64702,0.161938,2.739,3.20016
1.64261,0.160637,2.717,3.179
1.63867,0.159395,2.696,3.15896
1.64742,0.159395,2.696,3.16351
1.63037,0.156912,2.654,3.11872
1.62601,0.155671,2.633,3.09852
1.63456,0.155671,2.633,3.10301
1.63062,0.154488,2.613,3.08392
1.61464,0.152182,2.574,3.04232
1.62299,0.152182,2.574,3.04676
1.63135,0.152182,2.574,3.05122
1.6276,0.151059,2.555,3.03314
1.63589,0.151059,2.555,3.0376
1.63196,0.149936,2.536,3.01945
1.6279,0.148812,2.517,3.00125
1.62437,0.147748,2.499,2.98419
1.63248,0.147748,2.499,2.98862
1.62878,0.146684,2.481,2.9715
1.63683,0.146684,2.481,2.97592
1.64488,0.146684,2.481,2.98035
1.64094,0.14562,2.463,2.96315
1.63689,0.144556,2.445,2.9459
1.64482,0.144556,2.445,2.95032
1.64127,0.14355,2.428,2.9342
1.64915,0.14355,2.428,2.93862
-1.84117,0.165524,2.654,3.23435
-1.83255,0.165524,2.654,3.22945
-1.82394,0.165524,2.654,3.22457
-1.80096,0.164214,2.633,3.19423
-1.79241,0.164214,2.633,3.18942
-1.78387,0.164214,2.633,3.18463
-1.77532,0.164214,2.633,3.17985
-1.76678,0.164214,2.633,3.17508
-1.74487,0.162967,2.613,3.14625
-1.73639,0.162967,2.613,3.14156
-1.72791,0.162967,2.613,3.13688
-1.71943,0.162967,2.613,3.13221
-1.72405,0.164214,2.633,3.15151
-1.7155,0.164214,2.633,3.14684
-1.70695,0.164214,2.633,3.14219
-1.71195,0.165524,2.654,3.16258
-1.70334,0.165524,2.654,3.15792
-1.70813,0.166834,2.675,3.17824
-1.72614,0.169453,2.717,3.22341
-1.71732,0.169453,2.717,3.21869
-1.7085,0.169453,2.717,3.214
-1.69968,0.169453,2.717,3.20932
-1.70455,0.170825,2.739,3.2306
-1.69566,0.170825,2.739,3.22592
-1.68677,0.170825,2.739,3.22126
-1.69136,0.172197,2.761,3.24245
-1.6824,0.172197,2.761,3.23778
-1.6601,0.170825,2.739,3.20737
-1.62529,0.168143,2.696,3.1525
-1.61654,0.168143,2.696,3.148
-1.58274,0.165524,2.654,3.09454
-1.54981,0.162967,2.613,3.04241
-1.54133,0.162967,2.613,3.03809
-1.50997,0.160535,2.574,2.98852
-1.47944,0.158165,2.536,2.94025
-1.47121,0.158165,2.536,2.93612
-1.44164,0.155857,2.499,2.88922
-1.41288,0.153612,2.463,2.84362
-1.40488,0.153612,2.463,2.83966
-1.37704,0.151429,2.428,2.79541
-1.35957,0.150369,2.411,2.772
-1.35174,0.150369,2.411,2.76817
-1.33444,0.149308,2.394,2.74486
-1.32667,0.149308,2.394,2.74109
-1.3189,0.149308,2.394,2.73734
-1.32044,0.150369,2.411,2.75302
-1.31262,0.150369,2.411,2.74927
-1.31399,0.151429,2.428,2.7649
-1.31526,0.152489,2.445,2.7805
-1.30732,0.152489,2.445,2.77675
-1.31852,0.154734,2.481,2.81386
-1.31997,0.155857,2.499,2.83048
-1.31186,0.155857,2.499,2.82671
-1.32305,0.158165,2.536,2.86475
-1.32467,0.15935,2.555,2.88239
-1.33596,0.16172,2.593,2.9214
-1.32754,0.16172,2.593,2.91756
-1.3293,0.162967,2.613,2.93622
-1.32082,0.162967,2.613,2.93239
-1.31234,0.162967,2.613,2.92858
-1.30385,0.162967,2.613,2.92478
-1.29537,0.162967,2.613,2.92101
-1.28689,0.162967,2.613,2.91726
-1.26863,0.16172,2.593,2.89123
-1.25098,0.160535,2.574,2.86639
-1.24262,0.160535,2.574,2.86275
-1.22516,0.15935,2.555,2.83803
-1.21686,0.15935,2.555,2.83446
-1.20857,0.15935,2.555,2.83091
-1.19135,0.158165,2.536,2.80636
-1.16586,0.155857,2.499,2.76198
-1.15775,0.155857,2.499,2.75856
-1.14136,0.154734,2.481,2.73532
-1.1333,0.154734,2.481,2.73197
-1.11709,0.153612,2.463,2.70885
-1.10909,0.153612,2.463,2.70556
-1.09305,0.152489,2.445,2.68254
-1.07757,0.151429,2.428,2.66069
-1.06969,0.151429,2.428,2.65751
-1.05437,0.150369,2.411,2.63576
-1.04655,0.150369,2.411,2.63264
-1.03872,0.150369,2.411,2.62954
-1.0309,0.150369,2.411,2.62646
-1.02307,0.150369,2.411,2.6234
-1.01525,0.150369,2.411,2.62035
-1.00742,0.150369,2.411,2.61733
-0.999596,0.150369,2.411,2.61433
-0.99177,0.150369,2.411,2.61135
-0.983945,0.150369,2.411,2.60839
-0.976119,0.150369,2.411,2.60544
-0.968294,0.150369,2.411,2.60252
-0.960468,0.150369,2.411,2.59962
-0.952643,0.150369,2.411,2.59674
-0.944817,0.150369,2.411,2.59388
-0.943599,0.151429,2.428,2.60931
-0.935718,0.151429,2.428,2.60647
-0.927837,0.151429,2.428,2.60365
-0.919957,0.151429,2.428,2.60085
-0.912076,0.151429,2.428,2.59808
-0.904195,0.151429,2.428,2.59532
-0.896315,0.151429,2.428,2.59258
-0.894654,0.152489,2.445,2.608
-0.886718,0.152489,2.445,2.60529
-0.878783,0.152489,2.445,2.6026
-0.870847,0.152489,2.445,2.59993
-0.862911,0.152489,2.445,2.59729
-0.854975,0.152489,2.445,2.59466
-0.853275,0.153612,2.463,2.61114
-0.845281,0.153612,2.463,2.60854
-0.837286,0.153612,2.463,2.60596
-0.829292,0.153612,2.463,2.6034
-0.821298,0.153612,2.463,2.60086
-0.813304,0.153612,2.463,2.59835
-0.805309,0.153612,2.463,2.59586
-0.803142,0.154734,2.481,2.61234
-0.795089,0.154734,2.481,2.60988
-0.787037,0.154734,2.481,2.60744
-0.778984,0.154734,2.481,2.60502
-0.770931,0.154734,2.481,2.60262
-0.768413,0.155857,2.499,2.61911
-0.760302,0.155857,2.499,2.61674
-0.752191,0.155857,2.499,2.6144
-0.74408,0.155857,2.499,2.61208
-0.735969,0.155857,2.499,2.60978
-0.7331,0.15698,2.517,2.62628
-0.724931,0.15698,2.517,2.62402
-0.716761,0.15698,2.517,2.62177
-0.708592,0.15698,2.517,2.61955
-0.700422,0.15698,2.517,2.61735
-0.697478,0.158165,2.536,2.63492
-0.689247,0.158165,2.536,2.63275
-0.681016,0.158165,2.536,2.63061
-0.672784,0.158165,2.536,2.62849
-0.664553,0.158165,2.536,2.62639
-0.661239,0.15935,2.555,2.64398
-0.652946,0.15935,2.555,2.64192
-0.644653,0.15935,2.555,2.63989
-0.63636,0.15935,2.555,2.63787
-0.628067,0.15935,2.555,2.63588
-0.619775,0.15935,2.555,2.63392
-0.611482,0.15935,2.555,2.63198
-0.598703,0.158165,2.536,2.61051
-0.590472,0.158165,2.536,2.60863
-0.577879,0.15698,2.517,2.58725
-0.569709,0.15698,2.517,2.58544
-0.561539,0.15698,2.517,2.58365
-0.55337,0.15698,2.517,2.58189
-0.5452,0.15698,2.517,2.58015
-0.537031,0.15698,2.517,2.57844
-0.525079,0.155857,2.499,2.55832
-0.516968,0.155857,2.499,2.55667
-0.508857,0.155857,2.499,2.55504
-0.500746,0.155857,2.499,2.55344
-0.489086,0.154734,2.481,2.53348
-0.481034,0.154734,2.481,2.53194
-0.472981,0.154734,2.481,2.53042
-0.464928,0.154734,2.481,2.52893
-0.456875,0.154734,2.481,2.52746
-0.448823,0.154734,2.481,2.52601
-0.44077,0.154734,2.481,2.5246
-0.432717,0.154734,2.481,2.5232
-0.424665,0.154734,2.481,2.52183
-0.416612,0.154734,2.481,2.52049
-0.408559,0.154734,2.481,2.51917
-0.400506,0.154734,2.481,2.51788
-0.392454,0.154734,2.481,2.51661
-0.384401,0.154734,2.481,2.51537
-0.379079,0.155857,2.499,2.53239
-0.370968,0.155857,2.499,2.53119
-0.362857,0.155857,2.499,2.53001
-0.357301,0.15698,2.517,2.54708
-0.349131,0.15698,2.517,2.54594
-0.340961,0.15698,2.517,2.54484
-0.332792,0.15698,2.517,2.54375
-0.324622,0.15698,2.517,2.5427
-0.318842,0.158165,2.536,2.56085
-0.31061,0.158165,2.536,2.55984
-0.304645,0.15935,2.555,2.57803
-0.296352,0.15935,2.555,2.57706
-0.288059,0.15935,2.555,2.57612
-0.279766,0.15935,2.555,2.57521
-0.271473,0.15935,2.555,2.57432
-0.26318,0.15935,2.555,2.57346
-0.256783,0.160535,2.574,2.59175
-0.248428,0.160535,2.574,2.59094
-0.240074,0.160535,2.574,2.59015
-0.231719,0.160535,2.574,2.58939
-0.223364,0.160535,2.574,2.58866
-0.21501,0.160535,2.574,2.58795
-0.206655,0.160535,2.574,2.58727
-0.198301,0.160535,2.574,2.58661
-0.189946,0.160535,2.574,2.58599
-0.181592,0.160535,2.574,2.58539
-0.173237,0.160535,2.574,2.58481
-0.164882,0.160535,2.574,2.58427
-0.156528,0.160535,2.574,2.58375
-0.148173,0.160535,2.574,2.58325
-0.139819,0.160535,2.574,2.58279
-0.130494,0.15935,2.555,2.56329
-0.122201,0.15935,2.555,2.56288
-0.113908,0.15935,2.555,2.5625
-0.105615,0.15935,2.555,2.56214
-0.0965985,0.158165,2.536,2.54276
-0.0883672,0.158165,2.536,2.54246
-0.080136,0.158165,2.536,2.54219
-0.0719048,0.158165,2.536,2.54194
-0.0636736,0.158165,2.536,2.54173
-0.0554423,0.158165,2.536,2.54153
-0.0472111,0.158165,2.536,2.54137
-0.0389799,0.158165,2.536,2.54123
-0.0307487,0.158165,2.536,2.54111
-0.0223487,0.15698,2.517,2.52199
-0.0141792,0.15698,2.517,2.52193
-0.00605498,0.158165,2.536,2.54093
0.00217625,0.158165,2.536,2.54093
0.0104075,0.158165,2.536,2.54095
0.0186387,0.158165,2.536,2.541
0.0268699,0.158165,2.536,2.54107
0.0351011,0.158165,2.536,2.54117
0.0433324,0.158165,2.536,2.5413
0.0515636,0.158165,2.536,2.54145
0.0597948,0.158165,2.536,2.54163
0.0680261,0.158165,2.536,2.54184
0.0768286,0.15935,2.555,2.56112
0.0851215,0.15935,2.555,2.56138
0.0927197,0.158165,2.536,2.54262
0.100951,0.158165,2.536,2.54293
0.109182,0.158165,2.536,2.54327
0.117413,0.158165,2.536,2.54364
nan,nan,nan,NaN
nan,nan,nan,NaN
0.142107,0.158165,2.536,2.5449
0.150338,0.158165,2.536,2.54537
0.157382,0.15698,2.517,2.5268
0.165551,0.15698,2.517,2.52732
nan,nan,nan,NaN
nan,nan,nan,NaN
nan,nan,nan,NaN
nan,nan,nan,NaN
nan,nan,nan,NaN
nan,nan,nan,NaN
nan,nan,nan,NaN
nan,nan,nan,NaN
nan,nan,nan,NaN
nan,nan,nan,NaN
nan,nan,nan,NaN
nan,nan,nan,NaN
nan,nan,nan,NaN
nan,nan,nan,NaN
nan,nan,nan,NaN
nan,nan,nan,NaN
nan,nan,nan,NaN
nan,nan,nan,NaN
nan,nan,nan,NaN
nan,nan,nan,NaN
nan,nan,nan,NaN
nan,nan,nan,NaN
nan,nan,nan,NaN
nan,nan,nan,NaN
nan,nan,nan,NaN
nan,nan,nan,NaN
nan,nan,nan,NaN
nan,nan,nan,NaN
nan,nan,nan,NaN
nan,nan,nan,NaN
nan,nan,nan,NaN
nan,nan,nan,NaN
0.41976,0.151429,2.428,2.46867
0.427641,0.151429,2.428,2.47002
0.435521,0.151429,2.428,2.4714
0.440297,0.150369,2.411,2.45548
0.448123,0.150369,2.411,2.4569
0.455948,0.150369,2.411,2.45834
0.463774,0.150369,2.411,2.4598
0.471599,0.150369,2.411,2.46129
0.479425,0.150369,2.411,2.4628
0.48725,0.150369,2.411,2.46433
0.491585,0.149308,2.394,2.44851
0.499355,0.149308,2.394,2.45008
0.507126,0.149308,2.394,2.45167
0.514896,0.149308,2.394,2.45329
0.522667,0.149308,2.394,2.45494
0.530437,0.149308,2.394,2.4566
0.538207,0.149308,2.394,2.45829
0.545977,0.149308,2.394,2.46
0.553748,0.149308,2.394,2.46174
0.557531,0.148248,2.377,2.44601
0.557636,0.146252,2.345,2.41482
0.565248,0.146252,2.345,2.41659
0.565042,0.144257,2.313,2.38538
0.572549,0.144257,2.313,2.38717
nan,nan,nan,NaN
0.575879,0.141388,2.267,2.34327
0.575519,0.139517,2.237,2.31406
0.582779,0.139517,2.237,2.31587
0.586347,0.138643,2.223,2.30321
0.589825,0.13777,2.209,2.29054
0.596994,0.13777,2.209,2.29239
0.604164,0.13777,2.209,2.29427
0.611334,0.13777,2.209,2.29617
0.618504,0.13777,2.209,2.29809
0.625674,0.13777,2.209,2.30003
0.640865,0.139517,2.237,2.33117
0.648126,0.139517,2.237,2.33317
0.664176,0.141388,2.267,2.36652
0.671534,0.141388,2.267,2.36859
0.688176,0.143321,2.298,2.40311
0.705019,0.145254,2.329,2.4377
0.712578,0.145254,2.329,2.4399
0.725085,0.146252,2.345,2.45889
0.742694,0.148248,2.377,2.49473
0.75041,0.148248,2.377,2.49704
0.763547,0.149308,2.394,2.51725
0.771317,0.149308,2.394,2.51961
0.78462,0.150369,2.411,2.53991
0.792445,0.150369,2.411,2.54234
0.805913,0.151429,2.428,2.56274
0.813794,0.151429,2.428,2.56522
0.821675,0.151429,2.428,2.56774
0.829556,0.151429,2.428,2.57027
0.837436,0.151429,2.428,2.57282
0.839398,0.150369,2.411,2.55737
0.84125,0.149308,2.394,2.5419
0.84902,0.149308,2.394,2.54448
0.862875,0.150369,2.411,2.56517
0.8707,0.150369,2.411,2.56781
0.878526,0.150369,2.411,2.57047
0.886351,0.150369,2.411,2.57316
0.887872,0.149308,2.394,2.5577
0.895642,0.149308,2.394,2.56041
0.909828,0.150369,2.411,2.58134
0.917653,0.150369,2.411,2.58411
0.925479,0.150369,2.411,2.5869
0.933304,0.150369,2.411,2.58971
0.94113,0.150369,2.411,2.59254
0.948955,0.150369,2.411,2.59539
0.956781,0.150369,2.411,2.59826
0.964606,0.150369,2.411,2.60115
0.972432,0.150369,2.411,2.60407
0.980257,0.150369,2.411,2.607
0.99505,0.151429,2.428,2.62835
1.00293,0.151429,2.428,2.63135
1.01081,0.151429,2.428,2.63436
1.02582,0.152489,2.445,2.65586
1.03376,0.152489,2.445,2.65894
1.0417,0.152489,2.445,2.66203
1.05736,0.153612,2.463,2.68477
1.06535,0.153612,2.463,2.68793
1.07335,0.153612,2.463,2.6911
1.08924,0.154734,2.481,2.71399
1.10526,0.155857,2.499,2.73695
1.11337,0.155857,2.499,2.74023
1.12148,0.155857,2.499,2.74354
1.13773,0.15698,2.517,2.76665
1.1459,0.15698,2.517,2.77002
1.15407,0.15698,2.517,2.77341
1.16224,0.15698,2.517,2.77682
1.17041,0.15698,2.517,2.78025
1.18747,0.158165,2.536,2.80471
1.1957,0.158165,2.536,2.80821
1.20394,0.158165,2.536,2.81172
1.20308,0.15698,2.517,2.79416
1.21125,0.15698,2.517,2.79769
1.21942,0.15698,2.517,2.80124
1.22759,0.15698,2.517,2.8048
1.22693,0.155857,2.499,2.7883
1.23504,0.155857,2.499,2.79188
1.24315,0.155857,2.499,2.79548
1.25126,0.155857,2.499,2.7991
1.25937,0.155857,2.499,2.80273
1.26748,0.155857,2.499,2.80639
1.27559,0.155857,2.499,2.81006
1.29295,0.15698,2.517,2.83402
1.31094,0.158165,2.536,2.85917
1.31917,0.158165,2.536,2.86296
1.3274,0.158165,2.536,2.86676
1.33563,0.158165,2.536,2.87058
1.34387,0.158165,2.536,2.87442
1.37236,0.160535,2.574,2.92141
1.3909,0.16172,2.593,2.94693
1.39932,0.16172,2.593,2.95092
1.41859,0.162967,2.613,2.97771
1.438,0.164214,2.633,3.00458
1.44654,0.164214,2.633,3.00868
1.4667,0.165524,2.654,3.03683
1.48698,0.166834,2.675,3.06506
1.49567,0.166834,2.675,3.06928
1.50435,0.166834,2.675,3.07352
1.52491,0.168143,2.696,3.10194
1.54561,0.169453,2.717,3.13045
1.55442,0.169453,2.717,3.13481
1.5759,0.170825,2.739,3.16461
1.58479,0.170825,2.739,3.16905
1.59368,0.170825,2.739,3.1735
1.5897,0.169453,2.717,3.15245
1.59852,0.169453,2.717,3.15691
1.60734,0.169453,2.717,3.16138
1.61616,0.169453,2.717,3.16587
1.61241,0.168143,2.696,3.14588
1.62116,0.168143,2.696,3.15038
1.61722,0.166834,2.675,3.13031
1.6259,0.166834,2.675,3.13481
1.63458,0.166834,2.675,3.13932
1.61747,0.164214,2.633,3.09449
1.61366,0.162967,2.613,3.07542
1.62214,0.162967,2.613,3.07988
1.61814,0.16172,2.593,3.06075
1.61464,0.160535,2.574,3.04275
1.62299,0.160535,2.574,3.04719
1.63135,0.160535,2.574,3.05165
1.6276,0.15935,2.555,3.03356
1.63589,0.15935,2.555,3.03802
1.63196,0.158165,2.536,3.01987
1.6279,0.15698,2.517,3.00167
1.62437,0.155857,2.499,2.98461
1.63248,0.155857,2.499,2.98903
1.64059,0.155857,2.499,2.99347
1.63683,0.154734,2.481,2.97633
1.64488,0.154734,2.481,2.98076
1.65293,0.154734,2.481,2.98521
1.64894,0.153612,2.463,2.96799
1.65693,0.153612,2.463,2.97244
1.65276,0.152489,2.445,2.95515
1.64915,0.151429,2.428,2.93901
-1.8266,0.172758,2.633,3.2092
-1.80424,0.171446,2.613,3.18001
-1.79576,0.171446,2.613,3.1752
-1.78728,0.171446,2.613,3.17042
-1.7788,0.171446,2.613,3.16564
-1.77032,0.171446,2.613,3.16088
-1.76184,0.171446,2.613,3.15614
-1.76678,0.172758,2.633,3.17554
-1.74487,0.171446,2.613,3.1467
-1.73639,0.171446,2.613,3.14201
-1.72791,0.171446,2.613,3.13733
-1.71943,0.171446,2.613,3.13267
-1.72405,0.172758,2.633,3.15196
-1.7155,0.172758,2.633,3.1473
-1.70695,0.172758,2.633,3.14265
-1.71195,0.174136,2.654,3.16304
-1.70334,0.174136,2.654,3.15839
-1.72154,0.176892,2.696,3.20366
-1.72614,0.178269,2.717,3.22388
-1.71732,0.178269,2.717,3.21917
-1.7085,0.178269,2.717,3.21447
-1.69968,0.178269,2.717,3.20979
-1.70455,0.179713,2.739,3.23109
-1.69566,0.179713,2.739,3.2264
-1.68677,0.179713,2.739,3.22174
-1.69136,0.181156,2.761,3.24294
-1.6824,0.181156,2.761,3.23827
-1.6601,0.179713,2.739,3.20786
-1.62529,0.176892,2.696,3.15298
-1.61654,0.176892,2.696,3.14848
-1.58274,0.174136,2.654,3.09501
-1.54981,0.171446,2.613,3.04287
-1.54133,0.171446,2.613,3.03856
-1.50997,0.168887,2.574,2.98898
-1.47944,0.166394,2.536,2.9407
-1.47121,0.166394,2.536,2.93657
-1.44164,0.163966,2.499,2.88967
-1.41288,0.161604,2.463,2.84406
-1.40488,0.161604,2.463,2.8401
-1.37704,0.159307,2.428,2.79585
-1.35957,0.158192,2.411,2.77243
-1.35174,0.158192,2.411,2.7686
-1.33444,0.157077,2.394,2.7453
-1.32667,0.157077,2.394,2.74153
-1.3189,0.157077,2.394,2.73777
-1.32044,0.158192,2.411,2.75345
-1.31262,0.158192,2.411,2.74971
-1.31399,0.159307,2.428,2.76535
-1.31526,0.160423,2.445,2.78095
-1.30732,0.160423,2.445,2.7772
-1.31852,0.162785,2.481,2.81431
-1.32948,0.165147,2.517,2.85133
-1.34126,0.16764,2.555,2.89052
-1.33296,0.16764,2.555,2.88668
-1.33452,0.168887,2.574,2.9043
-1.34626,0.171446,2.613,2.94442
-1.33778,0.171446,2.613,2.94055
-1.3293,0.171446,2.613,2.9367
-1.33093,0.172758,2.633,2.95532
-1.31234,0.171446,2.613,2.92906
-1.30385,0.171446,2.613,2.92527
-1.29537,0.171446,2.613,2.9215
-1.28689,0.171446,2.613,2.91775
-1.26863,0.170133,2.593,2.89171
-1.25098,0.168887,2.574,2.86687
-1.24262,0.168887,2.574,2.86323
-1.22516,0.16764,2.555,2.83851
-1.21686,0.16764,2.555,2.83494
-1.20857,0.16764,2.555,2.83139
-1.19135,0.166394,2.536,2.80683
-1.16586,0.163966,2.499,2.76245
-1.15775,0.163966,2.499,2.75903
-1.14136,0.162785,2.481,2.73579
-1.1333,0.162785,2.481,2.73244
-1.11709,0.161604,2.463,2.70931
-1.10909,0.161604,2.463,2.70602
-1.09305,0.160423,2.445,2.68301
-1.07757,0.159307,2.428,2.66115
-1.06969,0.159307,2.428,2.65797
-1.05437,0.158192,2.411,2.63622
-1.04655,0.158192,2.411,2.6331
-1.03872,0.158192,2.411,2.63
-1.0309,0.158192,2.411,2.62692
-1.02307,0.158192,2.411,2.62386
-1.01525,0.158192,2.411,2.62082
-1.00742,0.158192,2.411,2.61779
-0.999596,0.158192,2.411,2.61479
-0.99177,0.158192,2.411,2.61181
-0.983945,0.158192,2.411,2.60885
-0.976119,0.158192,2.411,2.60591
-0.968294,0.158192,2.411,2.60299
-0.960468,0.158192,2.411,2.60009
-0.952643,0.158192,2.411,2.59721
-0.944817,0.158192,2.411,2.59434
-0.936992,0.158192,2.411,2.59151
-0.929166,0.158192,2.411,2.58869
-0.921341,0.158192,2.411,2.58589
-0.919957,0.159307,2.428,2.60132
-0.912076,0.159307,2.428,2.59855
-0.904195,0.159307,2.428,2.59579
-0.896315,0.159307,2.428,2.59306
-0.888434,0.159307,2.428,2.59034
-0.880553,0.159307,2.428,2.58765
-0.878783,0.160423,2.445,2.60308
-0.870847,0.160423,2.445,2.60041
-0.862911,0.160423,2.445,2.59776
-0.854975,0.160423,2.445,2.59514
-0.847039,0.160423,2.445,2.59253
-0.839103,0.160423,2.445,2.58995
-0.831167,0.160423,2.445,2.58739
-0.829292,0.161604,2.463,2.60388
-0.821298,0.161604,2.463,2.60135
-0.813304,0.161604,2.463,2.59884
-0.805309,0.161604,2.463,2.59635
-0.803142,0.162785,2.481,2.61283
-0.795089,0.162785,2.481,2.61037
-0.787037,0.162785,2.481,2.60793
-0.778984,0.162785,2.481,2.60551
-0.770931,0.162785,2.481,2.60311
-0.762878,0.162785,2.481,2.60074
-0.760302,0.163966,2.499,2.61724
-0.752191,0.163966,2.499,2.6149
-0.74408,0.163966,2.499,2.61257
-0.735969,0.163966,2.499,2.61028
-0.727858,0.163966,2.499,2.608
-0.719746,0.163966,2.499,2.60575
-0.716761,0.165147,2.517,2.62227
-0.708592,0.165147,2.517,2.62005
-0.700422,0.165147,2.517,2.61785
-0.697478,0.166394,2.536,2.63542
-0.689247,0.166394,2.536,2.63326
-0.681016,0.166394,2.536,2.63111
-0.672784,0.166394,2.536,2.629
-0.664553,0.166394,2.536,2.6269
-0.661239,0.16764,2.555,2.6445
-0.652946,0.16764,2.555,2.64244
-0.644653,0.16764,2.555,2.6404
-0.63636,0.16764,2.555,2.63839
-0.628067,0.16764,2.555,2.6364
-0.619775,0.16764,2.555,2.63444
-0.611482,0.16764,2.555,2.6325
-0.603189,0.16764,2.555,2.63058
-0.590472,0.166394,2.536,2.60915
-0.577879,0.165147,2.517,2.58776
-0.569709,0.165147,2.517,2.58595
-0.561539,0.165147,2.517,2.58416
-0.55337,0.165147,2.517,2.5824
-0.5452,0.165147,2.517,2.58066
-0.537031,0.165147,2.517,2.57895
-0.525079,0.163966,2.499,2.55883
-0.516968,0.163966,2.499,2.55717
-0.508857,0.163966,2.499,2.55555
-0.500746,0.163966,2.499,2.55394
-0.492635,0.163966,2.499,2.55237
-0.484524,0.163966,2.499,2.55081
-0.476412,0.163966,2.499,2.54929
-0.464928,0.162785,2.481,2.52943
-0.456875,0.162785,2.481,2.52796
-0.448823,0.162785,2.481,2.52652
-0.44077,0.162785,2.481,2.5251
-0.432717,0.162785,2.481,2.52371
-0.424665,0.162785,2.481,2.52234
-0.416612,0.162785,2.481,2.521
-0.408559,0.162785,2.481,2.51968
-0.400506,0.162785,2.481,2.51839
-0.392454,0.162785,2.481,2.51712
-0.384401,0.162785,2.481,2.51587
-0.379079,0.163966,2.499,2.5329
-0.370968,0.163966,2.499,2.5317
-0.362857,0.163966,2.499,2.53052
-0.354745,0.163966,2.499,2.52937
-0.346634,0.163966,2.499,2.52825
-0.340961,0.165147,2.517,2.54535
-0.335304,0.166394,2.536,2.56348
-0.327073,0.166394,2.536,2.56241
-0.318842,0.166394,2.536,2.56138
-0.31061,0.166394,2.536,2.56036
-0.304645,0.16764,2.555,2.57855
-0.296352,0.16764,2.555,2.57759
-0.288059,0.16764,2.555,2.57665
-0.279766,0.16764,2.555,2.57573
-0.271473,0.16764,2.555,2.57484
-0.265137,0.168887,2.574,2.59313
-0.256783,0.168887,2.574,2.59228
-0.248428,0.168887,2.574,2.59147
-0.240074,0.168887,2.574,2.59068
-0.231719,0.168887,2.574,2.58992
-0.223364,0.168887,2.574,2.58919
-0.21501,0.168887,2.574,2.58848
-0.206655,0.168887,2.574,2.5878
-0.198301,0.168887,2.574,2.58715
-0.189946,0.168887,2.574,2.58652
-0.181592,0.168887,2.574,2.58592
-0.173237,0.168887,2.574,2.58535
-0.164882,0.168887,2.574,2.5848
-0.156528,0.168887,2.574,2.58428
-0.148173,0.168887,2.574,2.58379
-0.139819,0.168887,2.574,2.58332
-0.130494,0.16764,2.555,2.56382
-0.122201,0.16764,2.555,2.56341
-0.113908,0.16764,2.555,2.56303
-0.105615,0.16764,2.555,2.56267
-0.0973222,0.16764,2.555,2.56234
-0.0890293,0.16764,2.555,2.56204
-0.0807364,0.16764,2.555,2.56177
-0.0719048,0.166394,2.536,2.54247
-0.0636736,0.166394,2.536,2.54225
-0.0554423,0.166394,2.536,2.54206
-0.0472111,0.166394,2.536,2.54189
-0.0389799,0.166394,2.536,2.54175
-0.0307487,0.166394,2.536,2.54164
-0.0225174,0.166394,2.536,2.54155
-0.0142862,0.166394,2.536,2.54149
-0.00605498,0.166394,2.536,2.54146
0.00217625,0.166394,2.536,2.54145
0.0104075,0.166394,2.536,2.54147
0.0186387,0.166394,2.536,2.54152
0.0268699,0.166394,2.536,2.54159
0.0351011,0.166394,2.536,2.5417
0.0433324,0.166394,2.536,2.54182
0.0515636,0.166394,2.536,2.54198
0.0602428,0.16764,2.555,2.5612
0.0685357,0.16764,2.555,2.56141
0.0768286,0.16764,2.555,2.56165
0.0851215,0.16764,2.555,2.56191
0.0934144,0.16764,2.555,2.5622
0.101707,0.16764,2.555,2.56251
0.109182,0.166394,2.536,2.5438
0.117413,0.166394,2.536,2.54416
nan,nan,nan,NaN
nan,nan,nan,NaN
nan,nan,nan,NaN
nan,nan,nan,NaN
0.157382,0.165147,2.517,2.52732
0.165551,0.165147,2.517,2.52784
nan,nan,nan,NaN
nan,nan,nan,NaN
nan,nan,nan,NaN
nan,nan,nan,NaN
nan,nan,nan,NaN
nan,nan,nan,NaN
nan,nan,nan,NaN
nan,nan,nan,NaN
nan,nan,nan,NaN
nan,nan,nan,NaN
nan,nan,nan,NaN
nan,nan,nan,NaN
nan,nan,nan,NaN
nan,nan,nan,NaN
nan,nan,nan,NaN
nan,nan,nan,NaN
nan,nan,nan,NaN
nan,nan,nan,NaN
nan,nan,nan,NaN
nan,nan,nan,NaN
nan,nan,nan,NaN
nan,nan,nan,NaN
nan,nan,nan,NaN
nan,nan,nan,NaN
nan,nan,nan,NaN
nan,nan,nan,NaN
nan,nan,nan,NaN
nan,nan,nan,NaN
nan,nan,nan,NaN
nan,nan,nan,NaN
nan,nan,nan,NaN
nan,nan,nan,NaN
0.41976,0.159307,2.428,2.46916
0.427641,0.159307,2.428,2.47051
0.435521,0.159307,2.428,2.47189
0.440297,0.158192,2.411,2.45597
0.448123,0.158192,2.411,2.45739
0.455948,0.158192,2.411,2.45883
0.463774,0.158192,2.411,2.46029
0.471599,0.158192,2.411,2.46178
0.479425,0.158192,2.411,2.46329
0.48725,0.158192,2.411,2.46482
0.491585,0.157077,2.394,2.44899
0.499355,0.157077,2.394,2.45056
0.507126,0.157077,2.394,2.45216
0.514896,0.157077,2.394,2.45378
0.522667,0.157077,2.394,2.45542
0.530437,0.157077,2.394,2.45709
0.538207,0.157077,2.394,2.45878
0.545977,0.157077,2.394,2.46049
0.553748,0.157077,2.394,2.46222
0.557531,0.155961,2.377,2.44649
0.557636,0.153862,2.345,2.4153
0.565248,0.153862,2.345,2.41707
0.565042,0.151762,2.313,2.38585
0.572549,0.151762,2.313,2.38764
nan,nan,nan,NaN
0.572068,0.14776,2.252,2.32822
0.571917,0.145857,2.223,2.30002
0.579132,0.145857,2.223,2.30182
0.578698,0.143954,2.194,2.2736
0.582081,0.143035,2.18,2.2609
0.589157,0.143035,2.18,2.26273
0.596233,0.143035,2.18,2.26459
0.603309,0.143035,2.18,2.26646
0.610384,0.143035,2.18,2.26835
0.61746,0.143035,2.18,2.27027
0.628547,0.143954,2.194,2.28679
0.640014,0.144938,2.209,2.30441
0.651285,0.145857,2.223,2.32103
0.6585,0.145857,2.223,2.32306
0.6744,0.14776,2.252,2.35545
0.695635,0.150778,2.298,2.40571
0.703093,0.150778,2.298,2.40788
0.720137,0.152812,2.329,2.44258
0.732696,0.153862,2.345,2.46161
0.740307,0.153862,2.345,2.46389
0.753022,0.154911,2.361,2.48301
0.76584,0.155961,2.377,2.50219
0.773555,0.155961,2.377,2.50456
0.78127,0.155961,2.377,2.50696
0.794628,0.157077,2.394,2.52732
0.808096,0.158192,2.411,2.54774
0.815922,0.158192,2.411,2.55023
0.823747,0.158192,2.411,2.55274
0.831573,0.158192,2.411,2.55528
0.839398,0.158192,2.411,2.55784
0.84125,0.157077,2.394,2.54236
0.84902,0.157077,2.394,2.54495
0.856791,0.157077,2.394,2.54755
0.864561,0.157077,2.394,2.55017
0.872331,0.157077,2.394,2.55282
0.880102,0.157077,2.394,2.55548
0.887872,0.157077,2.394,2.55817
0.895642,0.157077,2.394,2.56088
0.909828,0.158192,2.411,2.58181
0.917653,0.158192,2.411,2.58458
0.925479,0.158192,2.411,2.58736
0.933304,0.158192,2.411,2.59017
0.94113,0.158192,2.411,2.593
0.948955,0.158192,2.411,2.59585
0.956781,0.158192,2.411,2.59873
0.964606,0.158192,2.411,2.60162
0.972432,0.158192,2.411,2.60453
0.980257,0.158192,2.411,2.60746
0.99505,0.159307,2.428,2.62882
1.00293,0.159307,2.428,2.63181
1.01081,0.159307,2.428,2.63483
1.02582,0.160423,2.445,2.65633
1.03376,0.160423,2.445,2.6594
1.0417,0.160423,2.445,2.6625
1.04963,0.160423,2.445,2.66561
1.05757,0.160423,2.445,2.66875
1.07335,0.161604,2.463,2.69157
1.08134,0.161604,2.463,2.69477
1.0973,0.162785,2.481,2.71771
1.10535,0.162785,2.481,2.72097
1.1134,0.162785,2.481,2.72425
1.12959,0.163966,2.499,2.74734
1.1377,0.163966,2.499,2.75068
1.14581,0.163966,2.499,2.75405
1.15393,0.163966,2.499,2.75743
1.16204,0.163966,2.499,2.76084
1.17015,0.163966,2.499,2.76426
1.17826,0.163966,2.499,2.7677
1.18637,0.163966,2.499,2.77117
1.19448,0.163966,2.499,2.77465
1.20259,0.163966,2.499,2.77815
1.2107,0.163966,2.499,2.78167
1.21881,0.163966,2.499,2.78521
1.21809,0.162785,2.481,2.76868
1.22614,0.162785,2.481,2.77223
1.23419,0.162785,2.481,2.77581
1.24225,0.162785,2.481,2.7794
1.2503,0.162785,2.481,2.783
1.25835,0.162785,2.481,2.78663
1.2664,0.162785,2.481,2.79028
1.29295,0.165147,2.517,2.83448
1.31094,0.166394,2.536,2.85964
1.31917,0.166394,2.536,2.86342
1.3274,0.166394,2.536,2.86723
1.33563,0.166394,2.536,2.87105
1.34387,0.166394,2.536,2.87488
1.37236,0.168887,2.574,2.92188
1.3909,0.170133,2.593,2.94741
1.39932,0.170133,2.593,2.95139
1.41859,0.171446,2.613,2.97818
1.438,0.172758,2.633,3.00506
1.44654,0.172758,2.633,3.00916
1.4667,0.174136,2.654,3.03731
1.48698,0.175514,2.675,3.06554
1.49567,0.175514,2.675,3.06976
1.50435,0.175514,2.675,3.074
1.52491,0.176892,2.696,3.10243
1.54561,0.178269,2.717,3.13094
1.55442,0.178269,2.717,3.1353
1.5759,0.179713,2.739,3.1651
1.58479,0.179713,2.739,3.16954
1.59368,0.179713,2.739,3.17399
1.5897,0.178269,2.717,3.15294
1.59852,0.178269,2.717,3.15739
1.60734,0.178269,2.717,3.16187
1.61616,0.178269,2.717,3.16636
1.61241,0.176892,2.696,3.14636
1.62116,0.176892,2.696,3.15085
1.61722,0.175514,2.675,3.13079
1.6259,0.175514,2.675,3.13528
1.63458,0.175514,2.675,3.13979
1.61747,0.172758,2.633,3.09495
1.61366,0.171446,2.613,3.07588
1.62214,0.171446,2.613,3.08034
1.61814,0.170133,2.593,3.06121
1.62656,0.170133,2.593,3.06566
1.63497,0.170133,2.593,3.07014
1.63135,0.168887,2.574,3.0521
1.6276,0.16764,2.555,3.03401
1.63589,0.16764,2.555,3.03847
1.63196,0.166394,2.536,3.02031
1.6279,0.165147,2.517,3.0021
1.62437,0.163966,2.499,2.98504
1.63248,0.163966,2.499,2.98946
1.64059,0.163966,2.499,2.9939
1.63683,0.162785,2.481,2.97676
1.64488,0.162785,2.481,2.98119
1.65293,0.162785,2.481,2.98564
1.64894,0.161604,2.463,2.96841
1.65693,0.161604,2.463,2.97286
1.65276,0.160423,2.445,2.95557
1.66069,0.160423,2.445,2.96001
-1.8266,0.181302,2.633,3.20968
-1.80424,0.179924,2.613,3.18048
-1.79576,0.179924,2.613,3.17567
-1.78728,0.179924,2.613,3.17089
-1.7788,0.179924,2.613,3.16611
-1.77032,0.179924,2.613,3.16136
-1.76184,0.179924,2.613,3.15661
-1.75336,0.179924,2.613,3.15189
-1.74487,0.179924,2.613,3.14718
-1.73639,0.179924,2.613,3.14248
-1.72791,0.179924,2.613,3.13781
-1.71943,0.179924,2.613,3.13314
-1.72405,0.181302,2.633,3.15244
-1.7155,0.181302,2.633,3.14778
-1.70695,0.181302,2.633,3.14313
-1.71195,0.182748,2.654,3.16353
-1.70334,0.182748,2.654,3.15887
-1.72154,0.18564,2.696,3.20415
-1.72614,0.187086,2.717,3.22438
-1.71732,0.187086,2.717,3.21967
-1.7085,0.187086,2.717,3.21497
-1.69968,0.187086,2.717,3.2103
-1.70455,0.1886,2.739,3.23159
-1.69566,0.1886,2.739,3.22691
-1.68677,0.1886,2.739,3.22225
-1.67788,0.1886,2.739,3.2176
-1.66899,0.1886,2.739,3.21298
-1.64677,0.187086,2.717,3.1826
-1.61263,0.184194,2.675,3.12892
-1.60395,0.184194,2.675,3.12445
-1.57022,0.181302,2.633,3.07102
-1.53795,0.178547,2.593,3.02007
-1.52953,0.178547,2.593,3.01579
-1.49882,0.175931,2.555,2.9674
-1.46836,0.173314,2.517,2.91915
-1.46019,0.173314,2.517,2.91504
-1.43125,0.170835,2.481,2.86933
-1.3928,0.167186,2.428,2.80411
-1.38492,0.167186,2.428,2.8002
-1.35775,0.164845,2.394,2.75715
-1.34998,0.164845,2.394,2.75334
-1.34221,0.164845,2.394,2.74954
-1.32497,0.163674,2.377,2.72625
-1.31725,0.163674,2.377,2.72251
-1.30954,0.163674,2.377,2.71879
-1.31113,0.164845,2.394,2.7345
-1.30336,0.164845,2.394,2.73078
-1.31399,0.167186,2.428,2.76581
-1.31526,0.168356,2.445,2.78141
-1.30732,0.168356,2.445,2.77767
-1.31852,0.170835,2.481,2.81479
-1.32948,0.173314,2.517,2.85181
-1.34126,0.175931,2.555,2.89101
-1.33296,0.175931,2.555,2.88717
-1.33452,0.177239,2.574,2.9048
-1.34626,0.179924,2.613,2.94492
-1.33778,0.179924,2.613,2.94105
-1.3293,0.179924,2.613,2.93721
-1.33093,0.181302,2.633,2.95583
-1.32238,0.181302,2.633,2.95199
-1.31383,0.181302,2.633,2.94817
-1.30529,0.181302,2.633,2.94437
-1.29674,0.181302,2.633,2.9406
-1.27841,0.179924,2.613,2.91453
-1.26021,0.178547,2.593,2.88854
-1.25179,0.178547,2.593,2.88488
-1.23427,0.177239,2.574,2.86012
-1.21686,0.175931,2.555,2.83544
-1.20857,0.175931,2.555,2.83189
-1.19135,0.174622,2.536,2.80733
-1.17426,0.173314,2.517,2.78284
-1.16609,0.173314,2.517,2.7794
-1.14964,0.172075,2.499,2.75613
-1.1333,0.170835,2.481,2.73293
-1.11709,0.169596,2.463,2.7098
-1.10909,0.169596,2.463,2.70651
-1.09305,0.168356,2.445,2.68349
-1.07757,0.167186,2.428,2.66163
-1.06969,0.167186,2.428,2.65845
-1.05437,0.166015,2.411,2.6367
-1.04655,0.166015,2.411,2.63358
-1.03872,0.166015,2.411,2.63048
-1.0309,0.166015,2.411,2.6274
-1.02307,0.166015,2.411,2.62434
-1.01525,0.166015,2.411,2.6213
-1.00742,0.166015,2.411,2.61828
-0.999596,0.166015,2.411,2.61528
-0.99177,0.166015,2.411,2.6123
-0.983945,0.166015,2.411,2.60934
-0.976119,0.166015,2.411,2.60639
-0.968294,0.166015,2.411,2.60347
-0.960468,0.166015,2.411,2.60057
-0.952643,0.166015,2.411,2.59769
-0.944817,0.166015,2.411,2.59483
-0.936992,0.166015,2.411,2.59199
-0.929166,0.166015,2.411,2.58918
-0.921341,0.166015,2.411,2.58638
-0.913515,0.166015,2.411,2.5836
-0.90569,0.166015,2.411,2.58084
-0.897864,0.166015,2.411,2.57811
-0.896315,0.167186,2.428,2.59355
-0.888434,0.167186,2.428,2.59084
-0.880553,0.167186,2.428,2.58815
-0.872672,0.167186,2.428,2.58548
-0.864792,0.167186,2.428,2.58283
-0.856911,0.167186,2.428,2.5802
-0.854975,0.168356,2.445,2.59564
-0.847039,0.168356,2.445,2.59304
-0.839103,0.168356,2.445,2.59046
-0.831167,0.168356,2.445,2.5879
-0.823232,0.168356,2.445,2.58536
-0.821298,0.169596,2.463,2.60186
-0.813304,0.169596,2.463,2.59934
-0.805309,0.169596,2.463,2.59685
-0.797315,0.169596,2.463,2.59439
-0.789321,0.169596,2.463,2.59194
-0.787037,0.170835,2.481,2.60844
-0.778984,0.170835,2.481,2.60602
-0.770931,0.170835,2.481,2.60363
-0.762878,0.170835,2.481,2.60126
-0.754826,0.170835,2.481,2.59891
-0.746773,0.170835,2.481,2.59658
-0.73872,0.170835,2.481,2.59427
-0.735969,0.172075,2.499,2.6108
-0.727858,0.172075,2.499,2.60852
-0.719746,0.172075,2.499,2.60627
-0.711635,0.172075,2.499,2.60404
-0.708592,0.173314,2.517,2.62058
-0.700422,0.173314,2.517,2.61838
-0.692252,0.173314,2.517,2.61621
-0.684083,0.173314,2.517,2.61406
-0.681016,0.174622,2.536,2.63165
-0.672784,0.174622,2.536,2.62953
-0.664553,0.174622,2.536,2.62744
-0.661239,0.175931,2.555,2.64504
-0.652946,0.175931,2.555,2.64297
-0.644653,0.175931,2.555,2.64094
-0.63636,0.175931,2.555,2.63893
-0.628067,0.175931,2.555,2.63694
-0.619775,0.175931,2.555,2.63498
-0.611482,0.175931,2.555,2.63304
-0.603189,0.175931,2.555,2.63112
-0.590472,0.174622,2.536,2.60968
-0.582241,0.174622,2.536,2.60783
-0.57401,0.174622,2.536,2.60601
-0.565778,0.174622,2.536,2.60421
-0.557547,0.174622,2.536,2.60243
-0.549316,0.174622,2.536,2.60068
-0.541085,0.174622,2.536,2.59895
-0.525079,0.172075,2.499,2.55936
-0.516968,0.172075,2.499,2.55771
-0.508857,0.172075,2.499,2.55608
-0.500746,0.172075,2.499,2.55448
-0.492635,0.172075,2.499,2.5529
-0.484524,0.172075,2.499,2.55135
-0.476412,0.172075,2.499,2.54982
-0.468301,0.172075,2.499,2.54832
-0.46019,0.172075,2.499,2.54684
-0.448823,0.170835,2.481,2.52705
-0.44077,0.170835,2.481,2.52563
-0.432717,0.170835,2.481,2.52424
-0.424665,0.170835,2.481,2.52287
-0.416612,0.170835,2.481,2.52153
-0.408559,0.170835,2.481,2.52021
-0.400506,0.170835,2.481,2.51892
-0.392454,0.170835,2.481,2.51765
-0.384401,0.170835,2.481,2.51641
-0.379079,0.172075,2.499,2.53344
-0.370968,0.172075,2.499,2.53224
-0.362857,0.172075,2.499,2.53106
-0.354745,0.172075,2.499,2.52991
-0.346634,0.172075,2.499,2.52879
-0.340961,0.173314,2.517,2.5459
-0.335304,0.174622,2.536,2.56402
-0.327073,0.174622,2.536,2.56296
-0.318842,0.174622,2.536,2.56192
-0.31061,0.174622,2.536,2.56091
-0.304645,0.175931,2.555,2.57911
-0.296352,0.175931,2.555,2.57814
-0.288059,0.175931,2.555,2.5772
-0.279766,0.175931,2.555,2.57629
-0.271473,0.175931,2.555,2.5754
-0.265137,0.177239,2.574,2.59368
-0.256783,0.177239,2.574,2.59284
-0.248428,0.177239,2.574,2.59203
-0.240074,0.177239,2.574,2.59124
-0.231719,0.177239,2.574,2.59048
-0.223364,0.177239,2.574,2.58975
-0.21501,0.177239,2.574,2.58904
-0.206655,0.177239,2.574,2.58836
-0.198301,0.177239,2.574,2.5877
-0.189946,0.177239,2.574,2.58708
-0.181592,0.177239,2.574,2.58648
-0.173237,0.177239,2.574,2.5859
-0.164882,0.177239,2.574,2.58536
-0.156528,0.177239,2.574,2.58484
-0.148173,0.177239,2.574,2.58435
-0.139819,0.177239,2.574,2.58388
-0.130494,0.175931,2.555,2.56437
-0.122201,0.175931,2.555,2.56396
-0.113908,0.175931,2.555,2.56358
-0.105615,0.175931,2.555,2.56323
-0.0973222,0.175931,2.555,2.5629
-0.0890293,0.175931,2.555,2.5626
-0.0807364,0.175931,2.555,2.56232
-0.0719048,0.174622,2.536,2.54302
-0.0636736,0.174622,2.536,2.5428
-0.0554423,0.174622,2.536,2.54261
-0.0472111,0.174622,2.536,2.54244
-0.0389799,0.174622,2.536,2.5423
-0.0307487,0.174622,2.536,2.54219
-0.0225174,0.174622,2.536,2.5421
-0.0142862,0.174622,2.536,2.54204
-0.00605498,0.174622,2.536,2.54201
0.00217625,0.174622,2.536,2.54201
0.0104075,0.174622,2.536,2.54203
0.0186387,0.174622,2.536,2.54207
0.0268699,0.174622,2.536,2.54215
0.0351011,0.174622,2.536,2.54225
0.0433324,0.174622,2.536,2.54237
0.0515636,0.174622,2.536,2.54253
0.0602428,0.175931,2.555,2.56176
0.0685357,0.175931,2.555,2.56197
0.0768286,0.175931,2.555,2.5622
0.0851215,0.175931,2.555,2.56246
0.0934144,0.175931,2.555,2.56275
0.101707,0.175931,2.555,2.56307
0.109182,0.174622,2.536,2.54435
0.117413,0.174622,2.536,2.54472
nan,nan,nan,NaN
nan,nan,nan,NaN
0.142107,0.174622,2.536,2.54597
0.150338,0.174622,2.536,2.54645
0.157382,0.173314,2.517,2.52786
0.165551,0.173314,2.517,2.52839
nan,nan,nan,NaN
nan,nan,nan,NaN
nan,nan,nan,NaN
nan,nan,nan,NaN
nan,nan,nan,NaN
nan,nan,nan,NaN
nan,nan,nan,NaN
nan,nan,nan,NaN
nan,nan,nan,NaN
nan,nan,nan,NaN
nan,nan,nan,NaN
nan,nan,nan,NaN
nan,nan,nan,NaN
nan,nan,nan,NaN
nan,nan,nan,NaN
nan,nan,nan,NaN
nan,nan,nan,NaN
nan,nan,nan,NaN
nan,nan,nan,NaN
nan,nan,nan,NaN
nan,nan,nan,NaN
nan,nan,nan,NaN
nan,nan,nan,NaN
nan,nan,nan,NaN
nan,nan,nan,NaN
nan,nan,nan,NaN
nan,nan,nan,NaN
nan,nan,nan,NaN
nan,nan,nan,NaN
nan,nan,nan,NaN
nan,nan,nan,NaN
nan,nan,nan,NaN
0.416821,0.166015,2.411,2.45239
0.424646,0.166015,2.411,2.45373
0.432472,0.166015,2.411,2.4551
0.440297,0.166015,2.411,2.45649
0.448123,0.166015,2.411,2.4579
0.455948,0.166015,2.411,2.45934
0.463774,0.166015,2.411,2.46081
0.471599,0.166015,2.411,2.46229
0.479425,0.166015,2.411,2.4638
0.483815,0.164845,2.394,2.44796
0.491585,0.164845,2.394,2.4495
0.499355,0.164845,2.394,2.45107
0.507126,0.164845,2.394,2.45267
0.514896,0.164845,2.394,2.45429
0.522667,0.164845,2.394,2.45593
0.530437,0.164845,2.394,2.4576
0.538207,0.164845,2.394,2.45928
0.545977,0.164845,2.394,2.461
0.553748,0.164845,2.394,2.46273
0.553778,0.162572,2.361,2.43052
0.557636,0.161471,2.345,2.41579
0.565248,0.161471,2.345,2.41756
0.565042,0.159267,2.313,2.38634
0.572549,0.159267,2.313,2.38813
nan,nan,nan,NaN
0.568258,0.154034,2.237,2.31318
0.564456,0.151073,2.194,2.27048
0.571577,0.151073,2.194,2.27226
0.575006,0.150109,2.18,2.25955
0.57861,0.149214,2.167,2.24788
0.585644,0.149214,2.167,2.2497
0.592677,0.149214,2.167,2.25154
0.599711,0.149214,2.167,2.2534
0.606744,0.149214,2.167,2.25528
0.613778,0.149214,2.167,2.25718
0.620811,0.149214,2.167,2.25911
0.627845,0.149214,2.167,2.26105
0.642789,0.151073,2.194,2.29121
0.64991,0.151073,2.194,2.29322
0.665716,0.15307,2.223,2.32558
0.686251,0.1561,2.267,2.37373
0.693609,0.1561,2.267,2.37587
0.710552,0.158234,2.298,2.41054
0.722698,0.159267,2.313,2.4285
0.730205,0.159267,2.313,2.43075
0.742815,0.160369,2.329,2.44984
0.75553,0.161471,2.345,2.46899
0.768348,0.162572,2.361,2.48819
0.776011,0.162572,2.361,2.49057
0.794628,0.164845,2.394,2.52781
0.808096,0.166015,2.411,2.54823
0.815922,0.166015,2.411,2.55073
0.823747,0.166015,2.411,2.55324
0.831573,0.166015,2.411,2.55578
0.839398,0.166015,2.411,2.55833
0.847224,0.166015,2.411,2.56091
0.84902,0.164845,2.394,2.54544
0.856791,0.164845,2.394,2.54804
0.864561,0.164845,2.394,2.55066
0.872331,0.164845,2.394,2.55331
0.880102,0.164845,2.394,2.55597
0.887872,0.164845,2.394,2.55866
0.895642,0.164845,2.394,2.56136
0.909828,0.166015,2.411,2.5823
0.917653,0.166015,2.411,2.58507
0.925479,0.166015,2.411,2.58785
0.933304,0.166015,2.411,2.59066
0.94113,0.166015,2.411,2.59349
0.948955,0.166015,2.411,2.59634
0.956781,0.166015,2.411,2.59921
0.964606,0.166015,2.411,2.6021
0.972432,0.166015,2.411,2.60502
0.980257,0.166015,2.411,2.60795
0.99505,0.167186,2.428,2.62931
1.00293,0.167186,2.428,2.6323
1.01081,0.167186,2.428,2.63531
1.02582,0.168356,2.445,2.65682
1.03376,0.168356,2.445,2.65989
1.0417,0.168356,2.445,2.66299
1.04963,0.168356,2.445,2.6661
1.05757,0.168356,2.445,2.66924
1.07335,0.169596,2.463,2.69206
1.08134,0.169596,2.463,2.69526
1.0973,0.170835,2.481,2.7182
1.10535,0.170835,2.481,2.72146
1.1134,0.170835,2.481,2.72474
1.12959,0.172075,2.499,2.74783
1.1377,0.172075,2.499,2.75118
1.14581,0.172075,2.499,2.75454
1.15393,0.172075,2.499,2.75793
1.16204,0.172075,2.499,2.76133
1.17015,0.172075,2.499,2.76475
1.17826,0.172075,2.499,2.7682
1.18637,0.172075,2.499,2.77166
1.19448,0.172075,2.499,2.77514
1.20259,0.172075,2.499,2.77864
1.2107,0.172075,2.499,2.78216
1.21881,0.172075,2.499,2.7857
1.21809,0.170835,2.481,2.76917
1.22614,0.170835,2.481,2.77272
1.23419,0.170835,2.481,2.77629
1.24225,0.170835,2.481,2.77988
1.2503,0.170835,2.481,2.78349
1.25835,0.170835,2.481,2.78711
1.2664,0.170835,2.481,2.79076
1.2837,0.172075,2.499,2.81469
1.29181,0.172075,2.499,2.8184
1.29993,0.172075,2.499,2.82213
1.30804,0.172075,2.499,2.82588
1.32563,0.173314,2.517,2.85002
1.3338,0.173314,2.517,2.85383
1.3521,0.174622,2.536,2.87923
1.37052,0.175931,2.555,2.9047
1.37881,0.175931,2.555,2.90863
1.38711,0.175931,2.555,2.91257
1.40578,0.177239,2.574,2.93821
1.41413,0.177239,2.574,2.94222
1.43298,0.178547,2.593,2.96799
1.45252,0.179924,2.613,2.99499
1.461,0.179924,2.613,2.99911
1.46948,0.179924,2.613,3.00325
1.48927,0.181302,2.633,3.03043
1.50977,0.182748,2.654,3.05884
1.51838,0.182748,2.654,3.0631
1.53908,0.184194,2.675,3.09165
1.55991,0.18564,2.696,3.12029
1.56866,0.18564,2.696,3.12467
1.56512,0.184194,2.675,3.1047
1.57381,0.184194,2.675,3.10909
1.58249,0.184194,2.675,3.11349
1.59117,0.184194,2.675,3.11791
1.59985,0.184194,2.675,3.12235
1.60854,0.184194,2.675,3.12681
1.60452,0.182748,2.654,3.1067
1.60037,0.181302,2.633,3.08654
1.60892,0.181302,2.633,3.09098
1.60518,0.179924,2.613,3.07193
1.60131,0.178547,2.593,3.05282
1.60973,0.178547,2.593,3.05725
1.61814,0.178547,2.593,3.06168
1.61464,0.177239,2.574,3.04367
1.62299,0.177239,2.574,3.04811
1.61931,0.175931,2.555,3.03004
1.6276,0.175931,2.555,3.03448
1.62373,0.174622,2.536,3.01634
1.63196,0.174622,2.536,3.02077
1.6279,0.173314,2.517,3.00256
1.62437,0.172075,2.499,2.9855
1.63248,0.172075,2.499,2.98992
1.64059,0.172075,2.499,2.99435
1.63683,0.170835,2.481,2.97721
1.64488,0.170835,2.481,2.98164
1.65293,0.170835,2.481,2.98609
1.64894,0.169596,2.463,2.96886
1.65693,0.169596,2.463,2.97331
1.65276,0.168356,2.445,2.95601
1.66069,0.168356,2.445,2.96045
-1.79885,0.186961,2.593,3.1614
-1.79043,0.186961,2.593,3.15662
-1.78202,0.186961,2.593,3.15185
-1.7736,0.186961,2.593,3.1471
-1.76518,0.186961,2.593,3.14237
-1.75677,0.186961,2.593,3.13765
-1.74835,0.186961,2.593,3.13294
-1.73994,0.186961,2.593,3.12825
-1.73152,0.186961,2.593,3.12358
-1.73639,0.188403,2.613,3.14298
-1.72791,0.188403,2.613,3.1383
-1.71943,0.188403,2.613,3.13364
-1.72405,0.189845,2.633,3.15295
-1.7155,0.189845,2.633,3.14828
-1.70695,0.189845,2.633,3.14363
-1.71195,0.191359,2.654,3.16404
-1.70334,0.191359,2.654,3.15938
-1.70813,0.192874,2.675,3.17971
-1.71279,0.194388,2.696,3.19998
-1.70404,0.194388,2.696,3.1953
-1.69529,0.194388,2.696,3.19065
-1.69968,0.195902,2.717,3.21082
-1.69086,0.195902,2.717,3.20616
-1.68204,0.195902,2.717,3.20152
-1.67322,0.195902,2.717,3.1969
-1.67788,0.197488,2.739,3.21814
-1.65559,0.195902,2.717,3.1877
-1.63404,0.194388,2.696,3.15853
-1.59997,0.191359,2.654,3.10487
-1.59135,0.191359,2.654,3.10044
-1.55829,0.188403,2.613,3.0482
-1.52668,0.185591,2.574,2.99844
-1.51832,0.185591,2.574,2.9942
-1.48768,0.182851,2.536,2.94583
-1.45786,0.180184,2.499,2.89876
-1.44975,0.180184,2.499,2.89469
-1.42087,0.177588,2.463,2.849
-1.38305,0.173839,2.411,2.78495
-1.37522,0.173839,2.411,2.78107
-1.35775,0.172613,2.394,2.75763
-1.3404,0.171387,2.377,2.73426
-1.33268,0.171387,2.377,2.73048
-1.32497,0.171387,2.377,2.72673
-1.31725,0.171387,2.377,2.72299
-1.30954,0.171387,2.377,2.71926
-1.31113,0.172613,2.394,2.73498
-1.30336,0.172613,2.394,2.73126
-1.31399,0.175064,2.428,2.7663
-1.31526,0.17629,2.445,2.78191
-1.30732,0.17629,2.445,2.77816
-1.31852,0.178886,2.481,2.81529
-1.32948,0.181481,2.517,2.85232
-1.34126,0.184221,2.555,2.89153
-1.33296,0.184221,2.555,2.88769
-1.34437,0.186961,2.593,2.92676
-1.34626,0.188403,2.613,2.94545
-1.33778,0.188403,2.613,2.94158
-1.33947,0.189845,2.633,2.96022
-1.34154,0.191359,2.654,2.97994
-1.33293,0.191359,2.654,2.97608
-1.31383,0.189845,2.633,2.94871
-1.30529,0.189845,2.633,2.94491
-1.29674,0.189845,2.633,2.94113
-1.2882,0.189845,2.633,2.93738
-1.26993,0.188403,2.613,2.91136
-1.26145,0.188403,2.613,2.90767
-1.24338,0.186961,2.593,2.88177
-1.22591,0.185591,2.574,2.85706
-1.21756,0.185591,2.574,2.85348
-1.20028,0.184221,2.555,2.82889
-1.17426,0.181481,2.517,2.78336
-1.16609,0.181481,2.517,2.77993
-1.14964,0.180184,2.499,2.75665
-1.1333,0.178886,2.481,2.73345
-1.11709,0.177588,2.463,2.71031
-1.10909,0.177588,2.463,2.70703
-1.09305,0.17629,2.445,2.684
-1.07757,0.175064,2.428,2.66214
-1.06969,0.175064,2.428,2.65896
-1.05437,0.173839,2.411,2.6372
-1.04655,0.173839,2.411,2.63409
-1.03872,0.173839,2.411,2.63099
-1.0309,0.173839,2.411,2.62791
-1.02307,0.173839,2.411,2.62485
-1.01525,0.173839,2.411,2.62181
-1.00742,0.173839,2.411,2.61879
-0.999596,0.173839,2.411,2.61579
-0.99177,0.173839,2.411,2.6128
-0.983945,0.173839,2.411,2.60984
-0.976119,0.173839,2.411,2.6069
-0.968294,0.173839,2.411,2.60398
-0.960468,0.173839,2.411,2.60108
-0.952643,0.173839,2.411,2.59821
-0.944817,0.173839,2.411,2.59535
-0.936992,0.173839,2.411,2.59251
-0.929166,0.173839,2.411,2.58969
-0.921341,0.173839,2.411,2.58689
-0.913515,0.173839,2.411,2.58412
-0.90569,0.173839,2.411,2.58136
-0.897864,0.173839,2.411,2.57862
-0.896315,0.175064,2.428,2.59407
-0.888434,0.175064,2.428,2.59136
-0.880553,0.175064,2.428,2.58867
-0.872672,0.175064,2.428,2.586
-0.864792,0.175064,2.428,2.58335
-0.856911,0.175064,2.428,2.58072
-0.854975,0.17629,2.445,2.59617
-0.847039,0.17629,2.445,2.59356
-0.839103,0.17629,2.445,2.59098
-0.831167,0.17629,2.445,2.58842
-0.823232,0.17629,2.445,2.58589
-0.821298,0.177588,2.463,2.60239
-0.813304,0.177588,2.463,2.59988
-0.805309,0.177588,2.463,2.59739
-0.797315,0.177588,2.463,2.59492
-0.789321,0.177588,2.463,2.59248
-0.787037,0.178886,2.481,2.60898
-0.778984,0.178886,2.481,2.60656
-0.770931,0.178886,2.481,2.60417
-0.762878,0.178886,2.481,2.6018
-0.754826,0.178886,2.481,2.59945
-0.746773,0.178886,2.481,2.59712
-0.73872,0.178886,2.481,2.59482
-0.735969,0.180184,2.499,2.61134
-0.727858,0.180184,2.499,2.60907
-0.719746,0.180184,2.499,2.60682
-0.711635,0.180184,2.499,2.60459
-0.708592,0.181481,2.517,2.62113
-0.700422,0.181481,2.517,2.61893
-0.692252,0.181481,2.517,2.61676
-0.684083,0.181481,2.517,2.61461
-0.681016,0.182851,2.536,2.63221
-0.672784,0.182851,2.536,2.63009
-0.664553,0.182851,2.536,2.628
-0.656322,0.182851,2.536,2.62593
-0.648091,0.182851,2.536,2.62388
-0.644653,0.184221,2.555,2.6415
-0.63636,0.184221,2.555,2.63949
-0.628067,0.184221,2.555,2.6375
-0.619775,0.184221,2.555,2.63554
-0.611482,0.184221,2.555,2.6336
-0.603189,0.184221,2.555,2.63169
-0.590472,0.182851,2.536,2.61025
-0.582241,0.182851,2.536,2.6084
-0.57401,0.182851,2.536,2.60657
-0.565778,0.182851,2.536,2.60477
-0.557547,0.182851,2.536,2.603
-0.549316,0.182851,2.536,2.60125
-0.541085,0.182851,2.536,2.59952
-0.525079,0.180184,2.499,2.55992
-0.516968,0.180184,2.499,2.55827
-0.508857,0.180184,2.499,2.55664
-0.500746,0.180184,2.499,2.55504
-0.492635,0.180184,2.499,2.55346
-0.484524,0.180184,2.499,2.55191
-0.476412,0.180184,2.499,2.55038
-0.468301,0.180184,2.499,2.54888
-0.46019,0.180184,2.499,2.5474
-0.448823,0.178886,2.481,2.52761
-0.44077,0.178886,2.481,2.52619
-0.432717,0.178886,2.481,2.5248
-0.424665,0.178886,2.481,2.52343
-0.416612,0.178886,2.481,2.52209
-0.408559,0.178886,2.481,2.52077
-0.400506,0.178886,2.481,2.51948
-0.392454,0.178886,2.481,2.51821
-0.384401,0.178886,2.481,2.51697
-0.379079,0.180184,2.499,2.534
-0.370968,0.180184,2.499,2.5328
-0.362857,0.180184,2.499,2.53163
-0.354745,0.180184,2.499,2.53048
-0.346634,0.180184,2.499,2.52935
-0.340961,0.181481,2.517,2.54646
-0.332792,0.181481,2.517,2.54538
-0.324622,0.181481,2.517,2.54433
-0.318842,0.182851,2.536,2.5625
-0.31061,0.182851,2.536,2.56149
-0.304645,0.184221,2.555,2.57968
-0.296352,0.184221,2.555,2.57872
-0.288059,0.184221,2.555,2.57778
-0.279766,0.184221,2.555,2.57686
-0.271473,0.184221,2.555,2.57598
-0.265137,0.185591,2.574,2.59427
-0.256783,0.185591,2.574,2.59343
-0.248428,0.185591,2.574,2.59261
-0.240074,0.185591,2.574,2.59182
-0.231719,0.185591,2.574,2.59106
-0.223364,0.185591,2.574,2.59033
-0.21501,0.185591,2.574,2.58962
-0.206655,0.185591,2.574,2.58894
-0.198301,0.185591,2.574,2.58829
-0.189946,0.185591,2.574,2.58766
-0.181592,0.185591,2.574,2.58706
-0.173237,0.185591,2.574,2.58649
-0.164882,0.185591,2.574,2.58594
-0.156528,0.185591,2.574,2.58542
-0.148173,0.185591,2.574,2.58493
-0.139819,0.185591,2.574,2.58447
-0.131464,0.185591,2.574,2.58403
-0.122201,0.184221,2.555,2.56455
-0.113908,0.184221,2.555,2.56416
-0.105615,0.184221,2.555,2.56381
-0.0973222,0.184221,2.555,2.56348
-0.0890293,0.184221,2.555,2.56318
-0.0807364,0.184221,2.555,2.5629
-0.0719048,0.182851,2.536,2.5436
-0.0636736,0.182851,2.536,2.54338
-0.0554423,0.182851,2.536,2.54319
