nan,nan,nan,NaN
nan,nan,nan,NaN
nan,nan,nan,NaN
nan,nan,nan,NaN
nan,nan,nan,NaN
nan,nan,nan,NaN
nan,nan,nan,NaN
nan,nan,nan,NaN
nan,nan,nan,NaN
nan,nan,nan,NaN
nan,nan,nan,NaN
nan,nan,nan,NaN
nan,nan,nan,NaN
nan,nan,nan,NaN
nan,nan,nan,NaN
nan,nan,nan,NaN
nan,nan,nan,NaN
nan,nan,nan,NaN
nan,nan,nan,NaN
nan,nan,nan,NaN
-1.1549,-0.295078,2.345,2.63057
-1.14729,-0.295078,2.345,2.62724
-1.13968,-0.295078,2.345,2.62392
-1.13207,-0.295078,2.345,2.62063
-1.12446,-0.295078,2.345,2.61735
-1.11685,-0.295078,2.345,2.61409
-1.10924,-0.295078,2.345,2.61084
-1.09411,-0.293065,2.329,2.58983
-1.08655,-0.293065,2.329,2.58664
-1.07899,-0.293065,2.329,2.58348
-1.07143,-0.293065,2.329,2.58033
-1.06387,-0.293065,2.329,2.5772
-1.04905,-0.291051,2.313,2.5564
-1.04155,-0.291051,2.313,2.55333
-1.03404,-0.291051,2.313,2.55028
-1.02653,-0.291051,2.313,2.54724
-1.01902,-0.291051,2.313,2.54423
-1.01152,-0.291051,2.313,2.54123
-1.00401,-0.291051,2.313,2.53825
-0.99004,-0.289164,2.298,2.51885
-0.982581,-0.289164,2.298,2.51593
-0.981488,-0.291051,2.313,2.52943
-0.97398,-0.291051,2.313,2.52652
-0.966473,-0.291051,2.313,2.52364
-0.958965,-0.291051,2.313,2.52077
-0.951458,-0.291051,2.313,2.51793
-0.943951,-0.291051,2.313,2.5151
-0.936443,-0.291051,2.313,2.51229
-0.928936,-0.291051,2.313,2.5095
-0.921428,-0.291051,2.313,2.50673
-0.913921,-0.291051,2.313,2.50398
-0.912683,-0.293065,2.329,2.51855
-0.905124,-0.293065,2.329,2.51583
-0.897565,-0.293065,2.329,2.51312
-0.890005,-0.293065,2.329,2.51043
-0.882446,-0.293065,2.329,2.50776
-0.874887,-0.293065,2.329,2.50511
-0.873286,-0.295078,2.345,2.51967
-0.865674,-0.295078,2.345,2.51704
-0.858063,-0.295078,2.345,2.51443
-0.850452,-0.295078,2.345,2.51184
-0.848591,-0.297091,2.361,2.5264
-0.840928,-0.297091,2.361,2.52384
-0.833265,-0.297091,2.361,2.52129
-0.825602,-0.297091,2.361,2.51877
-0.817938,-0.297091,2.361,2.51627
-0.815766,-0.299105,2.377,2.53082
-0.808051,-0.299105,2.377,2.52835
-0.800336,-0.299105,2.377,2.52589
-0.792621,-0.299105,2.377,2.52346
-0.784906,-0.299105,2.377,2.52105
-0.782749,-0.301244,2.394,2.53667
-0.774979,-0.301244,2.394,2.53428
-0.767208,-0.301244,2.394,2.53191
-0.759438,-0.301244,2.394,2.52957
-0.751668,-0.301244,2.394,2.52725
-0.743897,-0.301244,2.394,2.52495
-0.736127,-0.301244,2.394,2.52267
-0.728357,-0.301244,2.394,2.52041
-0.725703,-0.303383,2.411,2.53606
-0.717878,-0.303383,2.411,2.53383
-0.710052,-0.303383,2.411,2.53163
-0.702227,-0.303383,2.411,2.52944
-0.694401,-0.303383,2.411,2.52728
-0.691417,-0.305522,2.428,2.54295
-0.683536,-0.305522,2.428,2.54082
-0.675655,-0.305522,2.428,2.53871
-0.667775,-0.305522,2.428,2.53662
-0.659894,-0.305522,2.428,2.53456
-0.652013,-0.305522,2.428,2.53252
-0.648643,-0.307661,2.445,2.54822
-0.640707,-0.307661,2.445,2.54621
-0.632771,-0.307661,2.445,2.54422
-0.624835,-0.307661,2.445,2.54226
-0.621441,-0.309926,2.463,2.55903
-0.613446,-0.309926,2.463,2.5571
-0.605452,-0.309926,2.463,2.55519
-0.601824,-0.312191,2.481,2.57197
-0.593771,-0.312191,2.481,2.5701
-0.585719,-0.312191,2.481,2.56825
-0.577666,-0.312191,2.481,2.56642
-0.573746,-0.314456,2.499,2.58323
-0.565635,-0.314456,2.499,2.58144
-0.557524,-0.314456,2.499,2.57967
-0.55337,-0.316721,2.517,2.5965
-0.5452,-0.316721,2.517,2.59477
-0.537031,-0.316721,2.517,2.59307
-0.528861,-0.316721,2.517,2.59139
-0.520692,-0.316721,2.517,2.58973
-0.512522,-0.316721,2.517,2.5881
-0.50816,-0.319112,2.536,2.60602
-0.499929,-0.319112,2.536,2.60443
-0.491697,-0.319112,2.536,2.60286
-0.487088,-0.321503,2.555,2.62081
-0.478795,-0.321503,2.555,2.61928
-0.470502,-0.321503,2.555,2.61778
-0.46221,-0.321503,2.555,2.6163
-0.453917,-0.321503,2.555,2.61485
-0.445624,-0.321503,2.555,2.61342
-0.437331,-0.321503,2.555,2.61202
-0.429038,-0.321503,2.555,2.61064
-0.420745,-0.321503,2.555,2.60929
-0.415519,-0.323894,2.574,2.62736
-0.407165,-0.323894,2.574,2.62606
-0.39881,-0.323894,2.574,2.62477
-0.390456,-0.323894,2.574,2.62352
-0.382101,-0.323894,2.574,2.62229
-0.373747,-0.323894,2.574,2.62108
-0.365392,-0.323894,2.574,2.6199
-0.354402,-0.321503,2.555,2.59942
-0.346109,-0.321503,2.555,2.5983
-0.337816,-0.321503,2.555,2.59721
-0.329523,-0.321503,2.555,2.59615
-0.32123,-0.321503,2.555,2.59511
-0.312937,-0.321503,2.555,2.59409
-0.304645,-0.321503,2.555,2.59311
-0.296352,-0.321503,2.555,2.59214
-0.288059,-0.321503,2.555,2.59121
-0.279766,-0.321503,2.555,2.5903
-0.271473,-0.321503,2.555,2.58942
-0.26318,-0.321503,2.555,2.58856
-0.254887,-0.321503,2.555,2.58773
-0.246594,-0.321503,2.555,2.58693
-0.238301,-0.321503,2.555,2.58615
-0.230009,-0.321503,2.555,2.5854
-0.221716,-0.321503,2.555,2.58468
-0.213423,-0.321503,2.555,2.58398
-0.20513,-0.321503,2.555,2.58331
-0.196837,-0.321503,2.555,2.58266
-0.188544,-0.321503,2.555,2.58204
-0.180251,-0.321503,2.555,2.58145
-0.171958,-0.321503,2.555,2.58088
-0.163665,-0.321503,2.555,2.58034
-0.155372,-0.321503,2.555,2.57983
-0.14708,-0.321503,2.555,2.57935
-0.138787,-0.321503,2.555,2.57889
-0.130494,-0.321503,2.555,2.57845
-0.12311,-0.323894,2.574,2.59722
-0.114755,-0.323894,2.574,2.59684
-0.1064,-0.323894,2.574,2.59648
-0.0980459,-0.323894,2.574,2.59615
-0.0896914,-0.323894,2.574,2.59585
-0.0813368,-0.323894,2.574,2.59557
-0.0729822,-0.323894,2.574,2.59532
-0.0646277,-0.323894,2.574,2.5951
-0.0566885,-0.326284,2.593,2.61406
-0.0482722,-0.326284,2.593,2.61389
-0.039856,-0.326284,2.593,2.61375
-0.0314398,-0.326284,2.593,2.61364
-0.0230235,-0.326284,2.593,2.61355
-0.0146073,-0.326284,2.593,2.61349
-0.00619107,-0.326284,2.593,2.61346
0.00222516,-0.326284,2.593,2.61345
0.0106414,-0.326284,2.593,2.61347
0.0190576,-0.326284,2.593,2.61352
0.0274739,-0.326284,2.593,2.61359
0.0358901,-0.326284,2.593,2.61369
0.0443063,-0.326284,2.593,2.61382
0.0527226,-0.326284,2.593,2.61398
0.0611388,-0.326284,2.593,2.61416
0.0700915,-0.328801,2.613,2.63454
0.0785727,-0.328801,2.613,2.63478
0.0870538,-0.328801,2.613,2.63504
0.095535,-0.328801,2.613,2.63534
0.104016,-0.328801,2.613,2.63566
0.113358,-0.331318,2.633,2.65618
0.121904,-0.331318,2.633,2.65656
0.13045,-0.331318,2.633,2.65697
0.138997,-0.331318,2.633,2.6574
0.147543,-0.331318,2.633,2.65786
0.156089,-0.331318,2.633,2.65835
0.164635,-0.331318,2.633,2.65887
0.173181,-0.331318,2.633,2.65941
0.181727,-0.331318,2.633,2.65998
0.190273,-0.331318,2.633,2.66058
0.198819,-0.331318,2.633,2.6612
0.207365,-0.331318,2.633,2.66185
0.214271,-0.328801,2.613,2.64231
0.222752,-0.328801,2.613,2.64301
0.231233,-0.328801,2.613,2.64374
0.239715,-0.328801,2.613,2.64449
0.248196,-0.328801,2.613,2.64528
0.256677,-0.328801,2.613,2.64608
0.265158,-0.328801,2.613,2.64692
0.273639,-0.328801,2.613,2.64778
0.279961,-0.326284,2.593,2.6284
0.288377,-0.326284,2.593,2.62931
0.296793,-0.326284,2.593,2.63025
0.30521,-0.326284,2.593,2.63121
0.313626,-0.326284,2.593,2.6322
0.319682,-0.323894,2.574,2.61392
0.328037,-0.323894,2.574,2.61496
0.336391,-0.323894,2.574,2.61602
0.344746,-0.323894,2.574,2.6171
0.353101,-0.323894,2.574,2.61822
0.358787,-0.321503,2.555,2.60002
0.36708,-0.321503,2.555,2.60118
0.375373,-0.321503,2.555,2.60236
0.383666,-0.321503,2.555,2.60357
0.391959,-0.321503,2.555,2.60481
0.400252,-0.321503,2.555,2.60607
0.408544,-0.321503,2.555,2.60735
0.416837,-0.321503,2.555,2.60867
0.42513,-0.321503,2.555,2.61
0.433423,-0.321503,2.555,2.61137
0.441716,-0.321503,2.555,2.61276
0.450009,-0.321503,2.555,2.61417
0.458302,-0.321503,2.555,2.61561
0.470064,-0.323894,2.574,2.63654
0.478419,-0.323894,2.574,2.63804
0.486774,-0.323894,2.574,2.63957
0.495128,-0.323894,2.574,2.64112
0.503483,-0.323894,2.574,2.6427
0.511837,-0.323894,2.574,2.64431
0.520192,-0.323894,2.574,2.64594
0.532448,-0.326284,2.593,2.66714
0.540864,-0.326284,2.593,2.66883
0.54928,-0.326284,2.593,2.67055
0.55361,-0.323894,2.574,2.65271
0.561965,-0.323894,2.574,2.65447
0.566109,-0.321503,2.555,2.63664
0.574402,-0.321503,2.555,2.63843
0.582695,-0.321503,2.555,2.64025
0.590988,-0.321503,2.555,2.64209
0.599281,-0.321503,2.555,2.64396
0.607574,-0.321503,2.555,2.64585
0.615867,-0.321503,2.555,2.64777
0.619518,-0.319112,2.536,2.63001
0.627749,-0.319112,2.536,2.63196
0.635981,-0.319112,2.536,2.63393
0.639385,-0.316721,2.517,2.61618
0.647555,-0.316721,2.517,2.61819
0.655725,-0.316721,2.517,2.62022
0.663894,-0.316721,2.517,2.62228
0.672064,-0.316721,2.517,2.62436
0.680233,-0.316721,2.517,2.62647
0.688403,-0.316721,2.517,2.62859
0.691591,-0.314456,2.499,2.61193
0.699702,-0.314456,2.499,2.61409
0.707813,-0.314456,2.499,2.61627
0.715924,-0.314456,2.499,2.61848
0.729251,-0.316721,2.517,2.63959
0.73742,-0.316721,2.517,2.64185
0.74559,-0.316721,2.517,2.64415
0.753759,-0.316721,2.517,2.64646
0.76768,-0.319112,2.536,2.66879
0.775912,-0.319112,2.536,2.67117
0.784143,-0.319112,2.536,2.67358
0.792374,-0.319112,2.536,2.676
0.800605,-0.319112,2.536,2.67845
0.808836,-0.319112,2.536,2.68092
0.817068,-0.319112,2.536,2.68342
0.825299,-0.319112,2.536,2.68593
0.83353,-0.319112,2.536,2.68848
0.848068,-0.321503,2.555,2.7112
0.856361,-0.321503,2.555,2.71381
0.858224,-0.319112,2.536,2.69623
0.866455,-0.319112,2.536,2.69887
0.874686,-0.319112,2.536,2.70152
0.882918,-0.319112,2.536,2.7042
0.891149,-0.319112,2.536,2.70689
0.89938,-0.319112,2.536,2.70961
0.900811,-0.316721,2.517,2.69204
0.908981,-0.316721,2.517,2.69478
0.91715,-0.316721,2.517,2.69755
0.918703,-0.314456,2.499,2.68103
0.926814,-0.314456,2.499,2.68382
0.934925,-0.314456,2.499,2.68663
0.943036,-0.314456,2.499,2.68946
0.951147,-0.314456,2.499,2.69232
0.959258,-0.314456,2.499,2.69519
0.967369,-0.314456,2.499,2.69809
0.968454,-0.312191,2.481,2.68155
0.976507,-0.312191,2.481,2.68447
0.98456,-0.312191,2.481,2.68741
0.992612,-0.312191,2.481,2.69037
1.00067,-0.312191,2.481,2.69335
1.00872,-0.312191,2.481,2.69636
1.00939,-0.309926,2.463,2.67979
1.01739,-0.309926,2.463,2.68282
1.04037,-0.314456,2.499,2.72512
1.04848,-0.314456,2.499,2.72822
nan,nan,nan,NaN
nan,nan,nan,NaN
nan,nan,nan,NaN
nan,nan,nan,NaN
nan,nan,nan,NaN
nan,nan,nan,NaN
nan,nan,nan,NaN
nan,nan,nan,NaN
nan,nan,nan,NaN
nan,nan,nan,NaN
1.40403,-0.388068,3.084,3.41071
1.41404,-0.388068,3.084,3.41485
1.43698,-0.391592,3.112,3.45004
1.44708,-0.391592,3.112,3.45426
1.45718,-0.391592,3.112,3.45851
1.46728,-0.391592,3.112,3.46277
1.49115,-0.395241,3.141,3.49938
1.48749,-0.391592,3.112,3.47138
1.48411,-0.388068,3.084,3.44445
1.49412,-0.388068,3.084,3.44878
1.50413,-0.388068,3.084,3.45312
1.50089,-0.384671,3.057,3.42723
1.51081,-0.384671,3.057,3.43158
1.52073,-0.384671,3.057,3.43596
1.53065,-0.384671,3.057,3.44037
1.54057,-0.384671,3.057,3.44479
1.5505,-0.384671,3.057,3.44924
1.56042,-0.384671,3.057,3.45371
1.61349,-0.395241,3.141,3.55323
1.63868,-0.39889,3.17,3.59072
1.64897,-0.39889,3.17,3.59543
1.70636,-0.410215,3.26,3.70237
1.7675,-0.422295,3.356,3.81643
1.7784,-0.422295,3.356,3.82149
1.80688,-0.426447,3.389,3.8642
1.8549,-0.43513,3.458,3.94813
1.86612,-0.43513,3.458,3.95342
1.91589,-0.444064,3.529,4.04001
1.92734,-0.444064,3.529,4.04545
1.95913,-0.44872,3.566,4.09339
1.9707,-0.44872,3.566,4.09895
1.98227,-0.44872,3.566,4.10452
1.99385,-0.44872,3.566,4.11013
2.00542,-0.44872,3.566,4.11575
2.017,-0.44872,3.566,4.12141
2.02857,-0.44872,3.566,4.12708
2.04015,-0.44872,3.566,4.13278
2.05172,-0.44872,3.566,4.13851
2.06329,-0.44872,3.566,4.14426
2.05334,-0.444064,3.529,4.10698
2.04373,-0.439534,3.493,4.07076
2.05507,-0.439534,3.493,4.07646
2.06641,-0.439534,3.493,4.08219
2.03611,-0.430726,3.423,4.00602
2.02688,-0.426447,3.389,3.97183
2.03788,-0.426447,3.389,3.97745
2.00958,-0.418268,3.324,3.90671
1.98147,-0.410215,3.26,3.83694
1.99205,-0.410215,3.26,3.84242
1.96516,-0.402539,3.199,3.77591
1.95764,-0.39889,3.17,3.74705
1.96793,-0.39889,3.17,3.75243
1.94202,-0.391592,3.112,3.68908
1.91762,-0.384671,3.057,3.62912
1.92754,-0.384671,3.057,3.63437
1.92035,-0.381273,3.03,3.6075
1.89642,-0.374604,2.977,3.54955
1.90609,-0.374604,2.977,3.55472
1.89902,-0.371333,2.951,3.52882
1.89243,-0.368187,2.926,3.50404
1.88567,-0.365041,2.901,3.4792
1.89509,-0.365041,2.901,3.48431
1.87299,-0.359001,2.853,3.43171
1.86642,-0.355981,2.829,3.40786
1.8756,-0.355981,2.829,3.41289
1.85414,-0.350193,2.783,3.36237
1.84844,-0.347424,2.761,3.34074
1.8574,-0.347424,2.761,3.34571
1.83662,-0.341888,2.717,3.2973
1.83118,-0.339245,2.696,3.27669
-2.37465,-0.419619,3.423,4.18712
-2.36354,-0.419619,3.423,4.18083
-2.37648,-0.423909,3.458,4.21724
-2.36526,-0.423909,3.458,4.21093
-2.37786,-0.4282,3.493,4.24719
-2.36652,-0.4282,3.493,4.24085
-2.35518,-0.4282,3.493,4.23454
-2.34385,-0.4282,3.493,4.22824
-2.33251,-0.4282,3.493,4.22197
-2.32117,-0.4282,3.493,4.21571
-2.30983,-0.4282,3.493,4.20948
-2.2985,-0.4282,3.493,4.20327
-2.28716,-0.4282,3.493,4.19708
-2.27582,-0.4282,3.493,4.19092
-2.28782,-0.432613,3.529,4.2279
-2.27637,-0.432613,3.529,4.22171
-2.26491,-0.432613,3.529,4.21555
-2.23047,-0.4282,3.493,4.16646
-2.21914,-0.4282,3.493,4.1604
-2.2078,-0.4282,3.493,4.15437
-2.19646,-0.4282,3.493,4.14835
-2.16323,-0.423909,3.458,4.10086
-2.152,-0.423909,3.458,4.09495
-2.11911,-0.419619,3.423,4.04767
-2.108,-0.419619,3.423,4.04187
-2.09689,-0.419619,3.423,4.03608
-2.08578,-0.419619,3.423,4.03032
-2.07467,-0.419619,3.423,4.02458
-2.06356,-0.419619,3.423,4.01887
-2.03206,-0.415451,3.389,3.97331
-2.02106,-0.415451,3.389,3.9677
nan,nan,nan,NaN
nan,nan,nan,NaN
nan,nan,nan,NaN
nan,nan,nan,NaN
nan,nan,nan,NaN
nan,nan,nan,NaN
nan,nan,nan,NaN
nan,nan,nan,NaN
nan,nan,nan,NaN
nan,nan,nan,NaN
nan,nan,nan,NaN
nan,nan,nan,NaN
nan,nan,nan,NaN
nan,nan,nan,NaN
nan,nan,nan,NaN
nan,nan,nan,NaN
nan,nan,nan,NaN
nan,nan,nan,NaN
nan,nan,nan,NaN
nan,nan,nan,NaN
nan,nan,nan,NaN
nan,nan,nan,NaN
nan,nan,nan,NaN
nan,nan,nan,NaN
nan,nan,nan,NaN
nan,nan,nan,NaN
nan,nan,nan,NaN
nan,nan,nan,NaN
nan,nan,nan,NaN
nan,nan,nan,NaN
nan,nan,nan,NaN
-1.1549,-0.287469,2.345,2.62973
-1.14729,-0.287469,2.345,2.62639
-1.13968,-0.287469,2.345,2.62308
-1.13207,-0.287469,2.345,2.61978
-1.12446,-0.287469,2.345,2.6165
-1.11685,-0.287469,2.345,2.61324
-1.10924,-0.287469,2.345,2.60999
-1.10162,-0.287469,2.345,2.60677
-1.09401,-0.287469,2.345,2.60356
-1.07899,-0.285507,2.329,2.58263
-1.07143,-0.285507,2.329,2.57948
-1.06387,-0.285507,2.329,2.57635
-1.04905,-0.283546,2.313,2.55556
-1.04155,-0.283546,2.313,2.55249
-1.03404,-0.283546,2.313,2.54943
-1.02653,-0.283546,2.313,2.5464
-1.01902,-0.283546,2.313,2.54338
-1.00496,-0.281707,2.298,2.52391
-0.997499,-0.281707,2.298,2.52095
-0.99004,-0.281707,2.298,2.518
-0.982581,-0.281707,2.298,2.51508
-0.975123,-0.281707,2.298,2.51218
-0.967664,-0.281707,2.298,2.50929
-0.960205,-0.281707,2.298,2.50642
-0.952746,-0.281707,2.298,2.50358
-0.945288,-0.281707,2.298,2.50075
-0.937829,-0.281707,2.298,2.49794
-0.93037,-0.281707,2.298,2.49515
-0.922911,-0.281707,2.298,2.49237
-0.915453,-0.281707,2.298,2.48962
-0.913921,-0.283546,2.313,2.50312
-0.906413,-0.283546,2.313,2.50039
-0.898906,-0.283546,2.313,2.49768
-0.897565,-0.285507,2.329,2.51225
-0.890005,-0.285507,2.329,2.50955
-0.882446,-0.285507,2.329,2.50688
-0.874887,-0.285507,2.329,2.50423
-0.867327,-0.285507,2.329,2.5016
-0.865674,-0.287469,2.345,2.51616
-0.858063,-0.287469,2.345,2.51355
-0.850452,-0.287469,2.345,2.51096
-0.842841,-0.287469,2.345,2.50839
-0.835229,-0.287469,2.345,2.50585
-0.833265,-0.28943,2.361,2.5204
-0.825602,-0.28943,2.361,2.51788
-0.817938,-0.28943,2.361,2.51538
-0.810275,-0.28943,2.361,2.51289
-0.808051,-0.291392,2.377,2.52745
-0.800336,-0.291392,2.377,2.52499
-0.792621,-0.291392,2.377,2.52256
-0.784906,-0.291392,2.377,2.52014
-0.777191,-0.291392,2.377,2.51775
-0.769475,-0.291392,2.377,2.51538
-0.767208,-0.293476,2.394,2.531
-0.759438,-0.293476,2.394,2.52866
-0.751668,-0.293476,2.394,2.52634
-0.743897,-0.293476,2.394,2.52403
-0.736127,-0.293476,2.394,2.52175
-0.728357,-0.293476,2.394,2.5195
-0.725703,-0.29556,2.411,2.53514
-0.717878,-0.29556,2.411,2.53291
-0.710052,-0.29556,2.411,2.5307
-0.702227,-0.29556,2.411,2.52852
-0.694401,-0.29556,2.411,2.52636
-0.691417,-0.297644,2.428,2.54201
-0.683536,-0.297644,2.428,2.53988
-0.675655,-0.297644,2.428,2.53777
-0.67245,-0.299727,2.445,2.55344
-0.664514,-0.299727,2.445,2.55136
-0.656578,-0.299727,2.445,2.54931
-0.648643,-0.299727,2.445,2.54727
-0.640707,-0.299727,2.445,2.54526
-0.632771,-0.299727,2.445,2.54328
-0.624835,-0.299727,2.445,2.54131
-0.621441,-0.301934,2.463,2.55807
-0.613446,-0.301934,2.463,2.55614
-0.605452,-0.301934,2.463,2.55423
-0.601824,-0.304141,2.481,2.571
-0.593771,-0.304141,2.481,2.56913
-0.585719,-0.304141,2.481,2.56728
-0.577666,-0.304141,2.481,2.56546
-0.573746,-0.306347,2.499,2.58225
-0.565635,-0.306347,2.499,2.58046
-0.557524,-0.306347,2.499,2.5787
-0.55337,-0.308554,2.517,2.59552
-0.5452,-0.308554,2.517,2.59379
-0.537031,-0.308554,2.517,2.59208
-0.528861,-0.308554,2.517,2.5904
-0.520692,-0.308554,2.517,2.58875
-0.516391,-0.310883,2.536,2.60665
-0.50816,-0.310883,2.536,2.60503
-0.499929,-0.310883,2.536,2.60343
-0.491697,-0.310883,2.536,2.60187
-0.487088,-0.313212,2.555,2.61981
-0.478795,-0.313212,2.555,2.61828
-0.470502,-0.313212,2.555,2.61677
-0.46221,-0.313212,2.555,2.61529
-0.453917,-0.313212,2.555,2.61384
-0.445624,-0.313212,2.555,2.61241
-0.437331,-0.313212,2.555,2.61101
-0.429038,-0.313212,2.555,2.60964
-0.423874,-0.315541,2.574,2.62768
-0.415519,-0.315541,2.574,2.62635
-0.407165,-0.315541,2.574,2.62504
-0.39881,-0.315541,2.574,2.62376
-0.390456,-0.315541,2.574,2.6225
-0.382101,-0.315541,2.574,2.62127
-0.373747,-0.315541,2.574,2.62006
-0.365392,-0.315541,2.574,2.61888
-0.357037,-0.315541,2.574,2.61773
-0.348683,-0.315541,2.574,2.61661
-0.340328,-0.315541,2.574,2.6155
-0.329523,-0.313212,2.555,2.59513
-0.32123,-0.313212,2.555,2.59409
-0.312937,-0.313212,2.555,2.59308
-0.304645,-0.313212,2.555,2.59209
-0.296352,-0.313212,2.555,2.59113
-0.288059,-0.313212,2.555,2.59019
-0.279766,-0.313212,2.555,2.58928
-0.271473,-0.313212,2.555,2.5884
-0.26318,-0.313212,2.555,2.58755
-0.254887,-0.313212,2.555,2.58671
-0.246594,-0.313212,2.555,2.58591
-0.238301,-0.313212,2.555,2.58513
-0.230009,-0.313212,2.555,2.58438
-0.221716,-0.313212,2.555,2.58366
-0.213423,-0.313212,2.555,2.58296
-0.20513,-0.313212,2.555,2.58229
-0.196837,-0.313212,2.555,2.58164
-0.188544,-0.313212,2.555,2.58102
-0.180251,-0.313212,2.555,2.58043
-0.171958,-0.313212,2.555,2.57986
-0.163665,-0.313212,2.555,2.57932
-0.155372,-0.313212,2.555,2.57881
-0.14708,-0.313212,2.555,2.57833
-0.138787,-0.313212,2.555,2.57787
-0.130494,-0.313212,2.555,2.57743
-0.12311,-0.315541,2.574,2.59619
-0.114755,-0.315541,2.574,2.59581
-0.1064,-0.315541,2.574,2.59545
-0.0980459,-0.315541,2.574,2.59512
-0.0896914,-0.315541,2.574,2.59482
-0.0813368,-0.315541,2.574,2.59454
-0.0729822,-0.315541,2.574,2.5943
-0.0646277,-0.315541,2.574,2.59407
-0.0566885,-0.317871,2.593,2.61303
-0.0482722,-0.317871,2.593,2.61286
-0.039856,-0.317871,2.593,2.61272
-0.0314398,-0.317871,2.593,2.6126
-0.0230235,-0.317871,2.593,2.61251
-0.0146073,-0.317871,2.593,2.61245
-0.00619107,-0.317871,2.593,2.61242
0.00222516,-0.317871,2.593,2.61241
0.0106414,-0.317871,2.593,2.61243
0.0190576,-0.317871,2.593,2.61248
0.0274739,-0.317871,2.593,2.61256
0.0358901,-0.317871,2.593,2.61266
0.0443063,-0.317871,2.593,2.61279
0.0527226,-0.317871,2.593,2.61294
0.0611388,-0.317871,2.593,2.61313
0.0700915,-0.320322,2.613,2.63349
0.0785727,-0.320322,2.613,2.63373
0.0870538,-0.320322,2.613,2.634
0.095535,-0.320322,2.613,2.63429
0.104016,-0.320322,2.613,2.63461
0.113358,-0.322774,2.633,2.65513
0.121904,-0.322774,2.633,2.65551
0.13045,-0.322774,2.633,2.65592
0.137941,-0.320322,2.613,2.63617
0.146422,-0.320322,2.613,2.63663
0.154903,-0.320322,2.613,2.63711
0.163384,-0.320322,2.613,2.63763
0.173181,-0.322774,2.633,2.65836
0.181727,-0.322774,2.633,2.65893
0.190273,-0.322774,2.633,2.65953
0.198819,-0.322774,2.633,2.66015
0.207365,-0.322774,2.633,2.6608
0.214271,-0.320322,2.613,2.64127
0.222752,-0.320322,2.613,2.64197
0.231233,-0.320322,2.613,2.6427
0.239715,-0.320322,2.613,2.64345
0.248196,-0.320322,2.613,2.64423
0.256677,-0.320322,2.613,2.64504
0.265158,-0.320322,2.613,2.64588
0.273639,-0.320322,2.613,2.64674
0.279961,-0.317871,2.593,2.62737
0.288377,-0.317871,2.593,2.62828
0.296793,-0.317871,2.593,2.62922
0.30521,-0.317871,2.593,2.63018
0.313626,-0.317871,2.593,2.63117
0.319682,-0.315541,2.574,2.6129
0.328037,-0.315541,2.574,2.61393
0.336391,-0.315541,2.574,2.615
0.344746,-0.315541,2.574,2.61608
0.350494,-0.313212,2.555,2.59788
0.358787,-0.313212,2.555,2.59901
0.36708,-0.313212,2.555,2.60017
0.375373,-0.313212,2.555,2.60135
0.383666,-0.313212,2.555,2.60256
0.391959,-0.313212,2.555,2.6038
0.400252,-0.313212,2.555,2.60506
0.408544,-0.313212,2.555,2.60635
0.416837,-0.313212,2.555,2.60766
0.42513,-0.313212,2.555,2.609
0.433423,-0.313212,2.555,2.61036
0.441716,-0.313212,2.555,2.61175
0.450009,-0.313212,2.555,2.61317
0.46171,-0.315541,2.574,2.63405
0.470064,-0.315541,2.574,2.63553
0.478419,-0.315541,2.574,2.63703
0.486774,-0.315541,2.574,2.63856
0.498783,-0.317871,2.593,2.6596
0.507199,-0.317871,2.593,2.66119
0.515615,-0.317871,2.593,2.66281
0.524032,-0.317871,2.593,2.66445
0.532448,-0.317871,2.593,2.66612
0.540864,-0.317871,2.593,2.66781
0.54928,-0.317871,2.593,2.66953
0.557697,-0.317871,2.593,2.67128
0.566113,-0.317871,2.593,2.67305
0.570319,-0.315541,2.574,2.65524
0.578674,-0.315541,2.574,2.65705
0.587028,-0.315541,2.574,2.65888
0.590988,-0.313212,2.555,2.6411
0.599281,-0.313212,2.555,2.64297
0.607574,-0.313212,2.555,2.64486
0.615867,-0.313212,2.555,2.64678
0.62416,-0.313212,2.555,2.64872
0.632453,-0.313212,2.555,2.65068
0.635981,-0.310883,2.536,2.63295
0.644212,-0.310883,2.536,2.63495
0.647555,-0.308554,2.517,2.61722
0.655725,-0.308554,2.517,2.61925
0.663894,-0.308554,2.517,2.62131
0.672064,-0.308554,2.517,2.62339
0.685368,-0.310883,2.536,2.64531
0.688403,-0.308554,2.517,2.62762
0.696572,-0.308554,2.517,2.62977
0.704742,-0.308554,2.517,2.63195
0.712911,-0.308554,2.517,2.63415
0.721081,-0.308554,2.517,2.63637
0.729251,-0.308554,2.517,2.63862
0.73742,-0.308554,2.517,2.64089
0.751218,-0.310883,2.536,2.66313
0.759449,-0.310883,2.536,2.66547
0.76768,-0.310883,2.536,2.66782
0.775912,-0.310883,2.536,2.6702
0.784143,-0.310883,2.536,2.67261
0.792374,-0.310883,2.536,2.67503
0.800605,-0.310883,2.536,2.67748
0.808836,-0.310883,2.536,2.67996
0.817068,-0.310883,2.536,2.68245
0.825299,-0.310883,2.536,2.68497
0.83353,-0.310883,2.536,2.68751
0.841761,-0.310883,2.536,2.69008
0.849993,-0.310883,2.536,2.69266
0.858224,-0.310883,2.536,2.69527
0.859963,-0.308554,2.517,2.67769
0.868133,-0.308554,2.517,2.68033
0.876303,-0.308554,2.517,2.68298
0.884472,-0.308554,2.517,2.68566
0.892642,-0.308554,2.517,2.68836
0.900811,-0.308554,2.517,2.69109
0.90248,-0.306347,2.499,2.67457
0.910591,-0.306347,2.499,2.67732
0.918703,-0.306347,2.499,2.68009
0.926814,-0.306347,2.499,2.68288
0.934925,-0.306347,2.499,2.68569
0.943036,-0.306347,2.499,2.68852
0.951147,-0.306347,2.499,2.69138
0.959258,-0.306347,2.499,2.69426
0.967369,-0.306347,2.499,2.69716
0.968454,-0.304141,2.481,2.68063
0.976507,-0.304141,2.481,2.68355
0.991703,-0.306347,2.499,2.70598
0.999814,-0.306347,2.499,2.70896
1.00067,-0.304141,2.481,2.69243
1.00872,-0.304141,2.481,2.69544
1.00939,-0.301934,2.463,2.67888
1.01739,-0.301934,2.463,2.6819
nan,nan,nan,NaN
nan,nan,nan,NaN
nan,nan,nan,NaN
nan,nan,nan,NaN
nan,nan,nan,NaN
nan,nan,nan,NaN
nan,nan,nan,NaN
nan,nan,nan,NaN
nan,nan,nan,NaN
nan,nan,nan,NaN
nan,nan,nan,NaN
nan,nan,nan,NaN
1.45639,-0.392159,3.199,3.53673
1.46677,-0.392159,3.199,3.54102
1.49147,-0.395959,3.23,3.57969
1.50195,-0.395959,3.23,3.58407
1.51244,-0.395959,3.23,3.58847
1.53706,-0.399637,3.26,3.62628
1.56284,-0.40356,3.292,3.66641
1.55823,-0.399637,3.26,3.6353
1.55437,-0.395959,3.23,3.60635
1.56485,-0.395959,3.23,3.61088
1.57534,-0.395959,3.23,3.61544
1.5706,-0.392159,3.199,3.58527
1.58099,-0.392159,3.199,3.58983
1.56252,-0.385049,3.141,3.52925
1.57271,-0.385049,3.141,3.53377
1.58291,-0.385049,3.141,3.53832
1.5931,-0.385049,3.141,3.5429
1.6181,-0.388604,3.17,3.58025
1.64328,-0.392159,3.199,3.6177
1.66969,-0.395959,3.23,3.65753
1.68018,-0.395959,3.23,3.66233
1.72311,-0.40356,3.292,3.73754
1.78488,-0.415451,3.389,3.85276
1.79588,-0.415451,3.389,3.85786
1.82501,-0.419619,3.423,3.90175
1.8549,-0.423909,3.458,3.94691
1.86612,-0.423909,3.458,3.9522
1.91589,-0.432613,3.529,4.03877
1.92734,-0.432613,3.529,4.04421
1.95913,-0.437149,3.566,4.09214
1.9707,-0.437149,3.566,4.0977
1.98227,-0.437149,3.566,4.10328
1.99385,-0.437149,3.566,4.10888
2.00542,-0.437149,3.566,4.11451
2.017,-0.437149,3.566,4.12016
2.02857,-0.437149,3.566,4.12584
2.04015,-0.437149,3.566,4.13154
2.03043,-0.432613,3.529,4.09434
2.04189,-0.432613,3.529,4.10004
2.05334,-0.432613,3.529,4.10575
2.04373,-0.4282,3.493,4.06955
2.03448,-0.423909,3.458,4.03442
2.0457,-0.423909,3.458,4.04009
2.03611,-0.419619,3.423,4.00484
2.00714,-0.411405,3.356,3.932
2.01804,-0.411405,3.356,3.93757
2.00958,-0.407482,3.324,3.90557
1.98147,-0.399637,3.26,3.83582
1.99205,-0.399637,3.26,3.8413
1.96516,-0.392159,3.199,3.77482
1.95764,-0.388604,3.17,3.74597
1.96793,-0.388604,3.17,3.75135
1.94202,-0.381494,3.112,3.68802
1.91762,-0.374751,3.057,3.62808
1.92754,-0.374751,3.057,3.63333
1.92035,-0.371441,3.03,3.60647
1.89642,-0.364944,2.977,3.54854
1.90609,-0.364944,2.977,3.55371
1.89902,-0.361757,2.951,3.52782
1.89243,-0.358692,2.926,3.50306
1.87007,-0.352685,2.877,3.44945
1.87941,-0.352685,2.877,3.45452
1.87299,-0.349743,2.853,3.43075
1.86642,-0.346801,2.829,3.40691
1.8756,-0.346801,2.829,3.41195
1.85414,-0.341162,2.783,3.36144
1.83371,-0.335768,2.739,3.31321
1.8426,-0.335768,2.739,3.31814
1.83662,-0.333071,2.717,3.29639
1.81691,-0.327923,2.675,3.25028
-2.35106,-0.404454,3.389,4.14444
-2.34006,-0.404454,3.389,4.13821
-2.35243,-0.408511,3.423,4.17345
-2.34132,-0.408511,3.423,4.1672
-2.35403,-0.412688,3.458,4.20352
-2.34281,-0.412688,3.458,4.19724
-2.33158,-0.412688,3.458,4.19099
-2.32036,-0.412688,3.458,4.18475
-2.33251,-0.416865,3.493,4.22083
-2.32117,-0.416865,3.493,4.21458
-2.28669,-0.412688,3.458,4.16618
-2.27547,-0.412688,3.458,4.16003
-2.26424,-0.412688,3.458,4.1539
-2.25302,-0.412688,3.458,4.14779
-2.26448,-0.416865,3.493,4.18362
-2.25315,-0.416865,3.493,4.1775
-2.21935,-0.412688,3.458,4.1296
-2.20812,-0.412688,3.458,4.12358
-2.1969,-0.412688,3.458,4.11758
-2.18568,-0.412688,3.458,4.1116
-2.17445,-0.412688,3.458,4.10564
-2.16323,-0.412688,3.458,4.09971
-2.152,-0.412688,3.458,4.0938
-2.11911,-0.408511,3.423,4.04654
-2.108,-0.408511,3.423,4.04073
-2.09689,-0.408511,3.423,4.03494
-2.08578,-0.408511,3.423,4.02918
-2.05406,-0.404454,3.389,3.98348
-2.04306,-0.404454,3.389,3.97782
-2.03206,-0.404454,3.389,3.97218
-2.04134,-0.408511,3.423,4.00636
nan,nan,nan,NaN
nan,nan,nan,NaN
nan,nan,nan,NaN
nan,nan,nan,NaN
nan,nan,nan,NaN
nan,nan,nan,NaN
nan,nan,nan,NaN
nan,nan,nan,NaN
nan,nan,nan,NaN
nan,nan,nan,NaN
nan,nan,nan,NaN
nan,nan,nan,NaN
nan,nan,nan,NaN
nan,nan,nan,NaN
nan,nan,nan,NaN
nan,nan,nan,NaN
nan,nan,nan,NaN
nan,nan,nan,NaN
nan,nan,nan,NaN
nan,nan,nan,NaN
nan,nan,nan,NaN
nan,nan,nan,NaN
nan,nan,nan,NaN
nan,nan,nan,NaN
nan,nan,nan,NaN
nan,nan,nan,NaN
nan,nan,nan,NaN
nan,nan,nan,NaN
nan,nan,nan,NaN
nan,nan,nan,NaN
nan,nan,nan,NaN
-1.1549,-0.27986,2.345,2.62891
-1.14729,-0.27986,2.345,2.62557
-1.1319,-0.27795,2.329,2.60436
-1.12435,-0.27795,2.329,2.60109
-1.12446,-0.27986,2.345,2.61567
-1.11685,-0.27986,2.345,2.61241
-1.10924,-0.27986,2.345,2.60917
-1.10162,-0.27986,2.345,2.60594
-1.09401,-0.27986,2.345,2.60273
-1.07899,-0.27795,2.329,2.5818
-1.07143,-0.27795,2.329,2.57865
-1.06387,-0.27795,2.329,2.57552
-1.04905,-0.276041,2.313,2.55474
-1.04155,-0.276041,2.313,2.55166
-1.03404,-0.276041,2.313,2.54861
-1.02653,-0.276041,2.313,2.54557
-1.01902,-0.276041,2.313,2.54255
-1.00496,-0.27425,2.298,2.52308
-0.997499,-0.27425,2.298,2.52012
-0.99004,-0.27425,2.298,2.51718
-0.982581,-0.27425,2.298,2.51426
-0.975123,-0.27425,2.298,2.51135
-0.967664,-0.27425,2.298,2.50846
-0.960205,-0.27425,2.298,2.5056
-0.952746,-0.27425,2.298,2.50275
-0.945288,-0.27425,2.298,2.49992
-0.937829,-0.27425,2.298,2.49711
-0.93037,-0.27425,2.298,2.49431
-0.922911,-0.27425,2.298,2.49154
-0.915453,-0.27425,2.298,2.48879
-0.913921,-0.276041,2.313,2.50228
-0.906413,-0.276041,2.313,2.49955
-0.898906,-0.276041,2.313,2.49684
-0.897565,-0.27795,2.329,2.5114
-0.890005,-0.27795,2.329,2.50871
-0.882446,-0.27795,2.329,2.50603
-0.874887,-0.27795,2.329,2.50338
-0.867327,-0.27795,2.329,2.50075
-0.865674,-0.27986,2.345,2.5153
-0.858063,-0.27986,2.345,2.51269
-0.850452,-0.27986,2.345,2.5101
-0.842841,-0.27986,2.345,2.50753
-0.835229,-0.27986,2.345,2.50499
-0.833265,-0.281769,2.361,2.51953
-0.825602,-0.281769,2.361,2.51701
-0.817938,-0.281769,2.361,2.51451
-0.810275,-0.281769,2.361,2.51202
-0.808051,-0.283679,2.377,2.52657
-0.800336,-0.283679,2.377,2.52411
-0.792621,-0.283679,2.377,2.52168
-0.784906,-0.283679,2.377,2.51926
-0.777191,-0.283679,2.377,2.51687
-0.769475,-0.283679,2.377,2.5145
-0.767208,-0.285707,2.394,2.53011
-0.759438,-0.285707,2.394,2.52777
-0.751668,-0.285707,2.394,2.52544
-0.743897,-0.285707,2.394,2.52314
-0.736127,-0.285707,2.394,2.52086
-0.728357,-0.285707,2.394,2.5186
-0.725703,-0.287736,2.411,2.53424
-0.717878,-0.287736,2.411,2.53201
-0.710052,-0.287736,2.411,2.5298
-0.702227,-0.287736,2.411,2.52761
-0.694401,-0.287736,2.411,2.52545
-0.691417,-0.289765,2.428,2.5411
-0.683536,-0.289765,2.428,2.53897
-0.675655,-0.289765,2.428,2.53686
-0.67245,-0.291794,2.445,2.55252
-0.664514,-0.291794,2.445,2.55044
-0.656578,-0.291794,2.445,2.54838
-0.648643,-0.291794,2.445,2.54635
-0.640707,-0.291794,2.445,2.54434
-0.632771,-0.291794,2.445,2.54236
-0.624835,-0.291794,2.445,2.54039
-0.621441,-0.293942,2.463,2.55714
-0.613446,-0.293942,2.463,2.55521
-0.605452,-0.293942,2.463,2.5533
-0.601824,-0.29609,2.481,2.57006
-0.593771,-0.29609,2.481,2.56819
-0.585719,-0.29609,2.481,2.56634
-0.577666,-0.29609,2.481,2.56451
-0.573746,-0.298238,2.499,2.5813
-0.565635,-0.298238,2.499,2.57951
-0.557524,-0.298238,2.499,2.57775
-0.55337,-0.300387,2.517,2.59456
-0.5452,-0.300387,2.517,2.59283
-0.537031,-0.300387,2.517,2.59112
-0.528861,-0.300387,2.517,2.58944
-0.520692,-0.300387,2.517,2.58779
-0.516391,-0.302654,2.536,2.60568
-0.50816,-0.302654,2.536,2.60406
-0.499929,-0.302654,2.536,2.60246
-0.491697,-0.302654,2.536,2.6009
-0.487088,-0.304922,2.555,2.61883
-0.478795,-0.304922,2.555,2.6173
-0.470502,-0.304922,2.555,2.61579
-0.46221,-0.304922,2.555,2.61431
-0.453917,-0.304922,2.555,2.61286
-0.445624,-0.304922,2.555,2.61143
-0.437331,-0.304922,2.555,2.61003
-0.429038,-0.304922,2.555,2.60865
-0.423874,-0.307189,2.574,2.62669
-0.415519,-0.307189,2.574,2.62536
-0.407165,-0.307189,2.574,2.62405
-0.39881,-0.307189,2.574,2.62276
-0.390456,-0.307189,2.574,2.62151
-0.379281,-0.304922,2.555,2.60093
-0.370988,-0.304922,2.555,2.59974
-0.362695,-0.304922,2.555,2.59857
-0.354402,-0.304922,2.555,2.59742
-0.346109,-0.304922,2.555,2.5963
-0.337816,-0.304922,2.555,2.59521
-0.329523,-0.304922,2.555,2.59415
-0.32123,-0.304922,2.555,2.5931
-0.312937,-0.304922,2.555,2.59209
-0.304645,-0.304922,2.555,2.5911
-0.296352,-0.304922,2.555,2.59014
-0.288059,-0.304922,2.555,2.5892
-0.279766,-0.304922,2.555,2.58829
-0.271473,-0.304922,2.555,2.58741
-0.26318,-0.304922,2.555,2.58655
-0.254887,-0.304922,2.555,2.58572
-0.246594,-0.304922,2.555,2.58492
-0.238301,-0.304922,2.555,2.58414
-0.231719,-0.307189,2.574,2.6026
-0.223364,-0.307189,2.574,2.60187
-0.21501,-0.307189,2.574,2.60117
-0.206655,-0.307189,2.574,2.60049
-0.196837,-0.304922,2.555,2.58065
-0.188544,-0.304922,2.555,2.58003
-0.180251,-0.304922,2.555,2.57944
-0.171958,-0.304922,2.555,2.57887
-0.163665,-0.304922,2.555,2.57833
-0.155372,-0.304922,2.555,2.57782
-0.14708,-0.304922,2.555,2.57733
-0.139819,-0.307189,2.574,2.59603
-0.131464,-0.307189,2.574,2.5956
-0.12311,-0.307189,2.574,2.59519
-0.114755,-0.307189,2.574,2.5948
-0.1064,-0.307189,2.574,2.59445
-0.0980459,-0.307189,2.574,2.59412
-0.0896914,-0.307189,2.574,2.59382
-0.0819372,-0.309457,2.593,2.61269
-0.073521,-0.309457,2.593,2.61244
-0.0651047,-0.309457,2.593,2.61221
-0.0566885,-0.309457,2.593,2.61202
-0.0482722,-0.309457,2.593,2.61185
-0.039856,-0.309457,2.593,2.6117
-0.0314398,-0.309457,2.593,2.61159
-0.0230235,-0.309457,2.593,2.6115
-0.0146073,-0.309457,2.593,2.61144
-0.00619107,-0.309457,2.593,2.61141
0.00222516,-0.309457,2.593,2.6114
0.0106414,-0.309457,2.593,2.61142
0.0190576,-0.309457,2.593,2.61147
0.0274739,-0.309457,2.593,2.61155
0.0358901,-0.309457,2.593,2.61165
0.0443063,-0.309457,2.593,2.61178
0.0527226,-0.309457,2.593,2.61193
0.0611388,-0.309457,2.593,2.61212
0.069555,-0.309457,2.593,2.61233
0.0779713,-0.309457,2.593,2.61256
0.0870538,-0.311844,2.613,2.63298
0.095535,-0.311844,2.613,2.63328
0.104016,-0.311844,2.613,2.6336
0.112497,-0.311844,2.613,2.63395
0.121904,-0.31423,2.633,2.65448
0.12946,-0.311844,2.613,2.63473
0.137941,-0.311844,2.613,2.63516
0.146422,-0.311844,2.613,2.63561
0.154903,-0.311844,2.613,2.6361
0.163384,-0.311844,2.613,2.63661
0.173181,-0.31423,2.633,2.65733
0.181727,-0.31423,2.633,2.6579
0.190273,-0.31423,2.633,2.6585
0.198819,-0.31423,2.633,2.65913
0.207365,-0.31423,2.633,2.65978
0.214271,-0.311844,2.613,2.64025
0.222752,-0.311844,2.613,2.64095
0.231233,-0.311844,2.613,2.64168
0.239715,-0.311844,2.613,2.64244
0.248196,-0.311844,2.613,2.64322
0.256677,-0.311844,2.613,2.64403
0.265158,-0.311844,2.613,2.64487
0.273639,-0.311844,2.613,2.64573
0.28212,-0.311844,2.613,2.64662
0.290601,-0.311844,2.613,2.64754
0.296793,-0.309457,2.593,2.62821
0.30521,-0.309457,2.593,2.62918
0.313626,-0.309457,2.593,2.63017
0.319682,-0.307189,2.574,2.6119
0.328037,-0.307189,2.574,2.61294
0.336391,-0.307189,2.574,2.614
0.344746,-0.307189,2.574,2.61509
0.350494,-0.304922,2.555,2.59689
0.358787,-0.304922,2.555,2.59802
0.36708,-0.304922,2.555,2.59918
0.375373,-0.304922,2.555,2.60037
0.383666,-0.304922,2.555,2.60158
0.391959,-0.304922,2.555,2.60281
0.400252,-0.304922,2.555,2.60407
0.408544,-0.304922,2.555,2.60536
0.419937,-0.307189,2.574,2.62606
0.428292,-0.307189,2.574,2.62741
0.436646,-0.307189,2.574,2.62878
0.445001,-0.307189,2.574,2.63018
0.453355,-0.307189,2.574,2.63161
0.46171,-0.307189,2.574,2.63306
0.470064,-0.307189,2.574,2.63454
0.481951,-0.309457,2.593,2.6555
0.490367,-0.309457,2.593,2.65704
0.498783,-0.309457,2.593,2.65861
0.507199,-0.309457,2.593,2.6602
0.515615,-0.309457,2.593,2.66182
0.528074,-0.311844,2.613,2.684
0.536555,-0.311844,2.613,2.68569
0.545036,-0.311844,2.613,2.68739
0.553517,-0.311844,2.613,2.68913
0.561998,-0.311844,2.613,2.69088
0.570479,-0.311844,2.613,2.69267
0.574529,-0.309457,2.593,2.67385
0.582945,-0.309457,2.593,2.67568
0.591362,-0.309457,2.593,2.67752
0.595383,-0.307189,2.574,2.65976
0.603738,-0.307189,2.574,2.66164
0.612092,-0.307189,2.574,2.66355
0.615867,-0.304922,2.555,2.64581
0.62416,-0.304922,2.555,2.64775
0.632453,-0.304922,2.555,2.64972
0.635981,-0.302654,2.536,2.63199
0.644212,-0.302654,2.536,2.63399
0.652443,-0.302654,2.536,2.63602
0.660674,-0.302654,2.536,2.63806
0.668906,-0.302654,2.536,2.64014
0.677137,-0.302654,2.536,2.64224
0.685368,-0.302654,2.536,2.64436
0.688403,-0.300387,2.517,2.62667
0.696572,-0.300387,2.517,2.62883
0.704742,-0.300387,2.517,2.631
0.712911,-0.300387,2.517,2.6332
0.721081,-0.300387,2.517,2.63543
0.729251,-0.300387,2.517,2.63767
0.73742,-0.300387,2.517,2.63995
0.751218,-0.302654,2.536,2.66218
0.759449,-0.302654,2.536,2.66452
0.76768,-0.302654,2.536,2.66688
0.775912,-0.302654,2.536,2.66926
0.784143,-0.302654,2.536,2.67166
0.792374,-0.302654,2.536,2.67409
0.800605,-0.302654,2.536,2.67654
0.808836,-0.302654,2.536,2.67901
0.817068,-0.302654,2.536,2.68151
0.825299,-0.302654,2.536,2.68403
0.83353,-0.302654,2.536,2.68657
0.841761,-0.302654,2.536,2.68914
0.849993,-0.302654,2.536,2.69172
0.858224,-0.302654,2.536,2.69434
0.859963,-0.300387,2.517,2.67676
0.868133,-0.300387,2.517,2.6794
0.876303,-0.300387,2.517,2.68206
0.884472,-0.300387,2.517,2.68474
0.892642,-0.300387,2.517,2.68744
0.900811,-0.300387,2.517,2.69016
0.90248,-0.298238,2.499,2.67365
0.910591,-0.298238,2.499,2.6764
0.918703,-0.298238,2.499,2.67917
0.926814,-0.298238,2.499,2.68196
0.934925,-0.298238,2.499,2.68478
0.936243,-0.29609,2.481,2.66825
0.944296,-0.29609,2.481,2.67109
0.952349,-0.29609,2.481,2.67395
0.960401,-0.29609,2.481,2.67683
0.968454,-0.29609,2.481,2.67973
0.969422,-0.293942,2.463,2.66318
0.977417,-0.293942,2.463,2.6661
0.985411,-0.293942,2.463,2.66905
0.993405,-0.293942,2.463,2.67201
1.0014,-0.293942,2.463,2.67499
1.00939,-0.293942,2.463,2.67799
1.01739,-0.293942,2.463,2.68102
nan,nan,nan,NaN
nan,nan,nan,NaN
nan,nan,nan,NaN
nan,nan,nan,NaN
nan,nan,nan,NaN
nan,nan,nan,NaN
nan,nan,nan,NaN
nan,nan,nan,NaN
nan,nan,nan,NaN
nan,nan,nan,NaN
nan,nan,nan,NaN
nan,nan,nan,NaN
1.45639,-0.381779,3.199,3.53559
1.46677,-0.381779,3.199,3.53988
1.49147,-0.385478,3.23,3.57854
1.50195,-0.385478,3.23,3.58293
1.51244,-0.385478,3.23,3.58733
1.53706,-0.389059,3.26,3.62513
1.56284,-0.392878,3.292,3.66525
1.55823,-0.389059,3.26,3.63415
1.55437,-0.385478,3.23,3.60521
1.56485,-0.385478,3.23,3.60975
1.57534,-0.385478,3.23,3.6143
1.5706,-0.381779,3.199,3.58415
1.58099,-0.381779,3.199,3.58871
1.56252,-0.374857,3.141,3.52815
1.57271,-0.374857,3.141,3.53268
1.58291,-0.374857,3.141,3.53723
1.5931,-0.374857,3.141,3.5418
1.6181,-0.378318,3.17,3.57914
1.64328,-0.381779,3.199,3.61659
1.66969,-0.385478,3.23,3.65641
1.68018,-0.385478,3.23,3.66121
1.72311,-0.392878,3.292,3.73641
1.78488,-0.404454,3.389,3.85159
1.79588,-0.404454,3.389,3.8567
1.82501,-0.408511,3.423,3.90057
1.8549,-0.412688,3.458,3.94572
1.86612,-0.412688,3.458,3.95101
1.91589,-0.421162,3.529,4.03756
1.92734,-0.421162,3.529,4.043
1.9388,-0.421162,3.529,4.04848
1.95025,-0.421162,3.529,4.05397
1.98227,-0.425577,3.566,4.10206
1.99385,-0.425577,3.566,4.10766
2.00542,-0.425577,3.566,4.11329
2.017,-0.425577,3.566,4.11895
2.02857,-0.425577,3.566,4.12463
2.01898,-0.421162,3.529,4.08748
2.00972,-0.416865,3.493,4.05139
2.02106,-0.416865,3.493,4.05703
2.03239,-0.416865,3.493,4.06269
2.02325,-0.412688,3.458,4.02761
2.01389,-0.408511,3.423,3.99244
2.025,-0.408511,3.423,3.99805
2.01588,-0.404454,3.389,3.96392
2.00714,-0.400515,3.356,3.93088
2.01804,-0.400515,3.356,3.93645
1.99024,-0.392878,3.292,3.86687
1.98147,-0.389059,3.26,3.83474
1.99205,-0.389059,3.26,3.84021
1.96516,-0.381779,3.199,3.77375
1.95764,-0.378318,3.17,3.74491
1.96793,-0.378318,3.17,3.7503
1.94202,-0.371396,3.112,3.68699
1.93456,-0.368054,3.084,3.6591
1.94457,-0.368054,3.084,3.6644
1.92035,-0.36161,3.03,3.60547
1.91299,-0.358387,3.003,3.57854
1.92273,-0.358387,3.003,3.58376
1.89902,-0.352181,2.951,3.52685
1.89243,-0.349198,2.926,3.5021
1.87007,-0.34335,2.877,3.44851
1.87941,-0.34335,2.877,3.45358
1.87299,-0.340486,2.853,3.42982
1.86642,-0.337622,2.829,3.40599
1.8756,-0.337622,2.829,3.41103
1.85414,-0.332132,2.783,3.36054
1.83371,-0.326881,2.739,3.31232
1.8426,-0.326881,2.739,3.31725
1.82243,-0.321749,2.696,3.27004
1.81691,-0.319243,2.675,3.24942
-2.32817,-0.389626,3.356,4.10304
-2.31727,-0.389626,3.356,4.09687
-2.30638,-0.389626,3.356,4.09071
-2.29549,-0.389626,3.356,4.08458
-2.30706,-0.393457,3.389,4.11858
-2.3191,-0.397404,3.423,4.15368
-2.30799,-0.397404,3.423,4.14749
-2.32036,-0.401468,3.458,4.18366
-2.33251,-0.405531,3.493,4.21973
-2.32117,-0.405531,3.493,4.21347
-2.28669,-0.401468,3.458,4.16508
-2.27547,-0.401468,3.458,4.15893
-2.26424,-0.401468,3.458,4.1528
-2.25302,-0.401468,3.458,4.14669
-2.26448,-0.405531,3.493,4.18251
-2.25315,-0.405531,3.493,4.17638
-2.21935,-0.401468,3.458,4.12849
-2.20812,-0.401468,3.458,4.12247
-2.1969,-0.401468,3.458,4.11647
-2.18568,-0.401468,3.458,4.11049
-2.17445,-0.401468,3.458,4.10453
-2.16323,-0.401468,3.458,4.0986
-2.152,-0.401468,3.458,4.09268
-2.11911,-0.397404,3.423,4.04543
-2.108,-0.397404,3.423,4.03962
-2.09689,-0.397404,3.423,4.03383
-2.08578,-0.397404,3.423,4.02807
-2.05406,-0.393457,3.389,3.98237
-2.04306,-0.393457,3.389,3.97671
-2.03206,-0.393457,3.389,3.97107
-2.04134,-0.397404,3.423,4.00524
nan,nan,nan,NaN
nan,nan,nan,NaN
nan,nan,nan,NaN
nan,nan,nan,NaN
nan,nan,nan,NaN
nan,nan,nan,NaN
nan,nan,nan,NaN
nan,nan,nan,NaN
nan,nan,nan,NaN
nan,nan,nan,NaN
nan,nan,nan,NaN
nan,nan,nan,NaN
nan,nan,nan,NaN
nan,nan,nan,NaN
nan,nan,nan,NaN
nan,nan,nan,NaN
nan,nan,nan,NaN
nan,nan,nan,NaN
nan,nan,nan,NaN
nan,nan,nan,NaN
nan,nan,nan,NaN
nan,nan,nan,NaN
nan,nan,nan,NaN
nan,nan,nan,NaN
nan,nan,nan,NaN
nan,nan,nan,NaN
nan,nan,nan,NaN
nan,nan,nan,NaN
nan,nan,nan,NaN
nan,nan,nan,NaN
nan,nan,nan,NaN
-1.1549,-0.27225,2.345,2.62811
-1.14729,-0.27225,2.345,2.62477
-1.1319,-0.270393,2.329,2.60357
-1.12435,-0.270393,2.329,2.60029
-1.12446,-0.27225,2.345,2.61487
-1.11685,-0.27225,2.345,2.61161
-1.10167,-0.270393,2.329,2.59056
-1.09411,-0.270393,2.329,2.58736
-1.08655,-0.270393,2.329,2.58417
-1.07899,-0.270393,2.329,2.581
-1.07143,-0.270393,2.329,2.57785
-1.06387,-0.270393,2.329,2.57472
-1.04905,-0.268535,2.313,2.55394
-1.04155,-0.268535,2.313,2.55086
-1.03404,-0.268535,2.313,2.54781
-1.02653,-0.268535,2.313,2.54477
-1.01242,-0.266794,2.298,2.52527
-1.00496,-0.266794,2.298,2.52229
-0.997499,-0.266794,2.298,2.51932
-0.99004,-0.266794,2.298,2.51638
-0.982581,-0.266794,2.298,2.51345
-0.975123,-0.266794,2.298,2.51055
-0.967664,-0.266794,2.298,2.50766
-0.960205,-0.266794,2.298,2.50479
-0.952746,-0.266794,2.298,2.50194
-0.945288,-0.266794,2.298,2.49911
-0.937829,-0.266794,2.298,2.4963
-0.93037,-0.266794,2.298,2.49351
-0.922911,-0.266794,2.298,2.49073
-0.915453,-0.266794,2.298,2.48798
-0.913921,-0.268535,2.313,2.50147
-0.906413,-0.268535,2.313,2.49873
-0.898906,-0.268535,2.313,2.49602
-0.891399,-0.268535,2.313,2.49333
-0.890005,-0.270393,2.329,2.50788
-0.882446,-0.270393,2.329,2.50521
-0.874887,-0.270393,2.329,2.50255
-0.867327,-0.270393,2.329,2.49992
-0.859768,-0.270393,2.329,2.49731
-0.852209,-0.270393,2.329,2.49472
-0.844649,-0.270393,2.329,2.49214
-0.842841,-0.27225,2.345,2.5067
-0.835229,-0.27225,2.345,2.50415
-0.827618,-0.27225,2.345,2.50162
-0.825602,-0.274108,2.361,2.51616
-0.817938,-0.274108,2.361,2.51366
-0.810275,-0.274108,2.361,2.51118
-0.802612,-0.274108,2.361,2.50871
-0.800336,-0.275966,2.377,2.52326
-0.792621,-0.275966,2.377,2.52082
-0.784906,-0.275966,2.377,2.5184
-0.777191,-0.275966,2.377,2.51601
-0.769475,-0.275966,2.377,2.51364
-0.76176,-0.275966,2.377,2.51129
-0.759438,-0.277939,2.394,2.5269
-0.751668,-0.277939,2.394,2.52458
-0.743897,-0.277939,2.394,2.52227
-0.736127,-0.277939,2.394,2.51999
-0.728357,-0.277939,2.394,2.51774
-0.720586,-0.277939,2.394,2.5155
-0.717878,-0.279913,2.411,2.53113
-0.710052,-0.279913,2.411,2.52892
-0.702227,-0.279913,2.411,2.52674
-0.699297,-0.281887,2.428,2.54237
-0.691417,-0.281887,2.428,2.54022
-0.683536,-0.281887,2.428,2.53808
-0.675655,-0.281887,2.428,2.53597
-0.67245,-0.28386,2.445,2.55163
-0.664514,-0.28386,2.445,2.54955
-0.656578,-0.28386,2.445,2.54749
-0.648643,-0.28386,2.445,2.54545
-0.640707,-0.28386,2.445,2.54344
-0.632771,-0.28386,2.445,2.54146
-0.624835,-0.28386,2.445,2.53949
-0.621441,-0.28595,2.463,2.55623
-0.613446,-0.28595,2.463,2.5543
-0.605452,-0.28595,2.463,2.55239
-0.601824,-0.28804,2.481,2.56915
-0.593771,-0.28804,2.481,2.56727
-0.585719,-0.28804,2.481,2.56542
-0.577666,-0.28804,2.481,2.5636
-0.573746,-0.29013,2.499,2.58038
-0.565635,-0.29013,2.499,2.57859
-0.557524,-0.29013,2.499,2.57682
-0.549413,-0.29013,2.499,2.57508
-0.541301,-0.29013,2.499,2.57336
-0.537031,-0.292219,2.517,2.59019
-0.528861,-0.292219,2.517,2.58851
-0.520692,-0.292219,2.517,2.58685
-0.516391,-0.294425,2.536,2.60473
-0.50816,-0.294425,2.536,2.60312
-0.503674,-0.296631,2.555,2.62101
-0.495381,-0.296631,2.555,2.61943
-0.487088,-0.296631,2.555,2.61788
-0.478795,-0.296631,2.555,2.61634
-0.470502,-0.296631,2.555,2.61484
-0.465647,-0.298837,2.574,2.63279
-0.457292,-0.298837,2.574,2.63133
-0.448938,-0.298837,2.574,2.62989
-0.440583,-0.298837,2.574,2.62848
-0.432229,-0.298837,2.574,2.62709
-0.423874,-0.298837,2.574,2.62573
-0.415519,-0.298837,2.574,2.62439
-0.407165,-0.298837,2.574,2.62308
-0.39881,-0.298837,2.574,2.6218
-0.390456,-0.298837,2.574,2.62054
-0.379281,-0.296631,2.555,2.59997
-0.370988,-0.296631,2.555,2.59878
-0.362695,-0.296631,2.555,2.59761
-0.354402,-0.296631,2.555,2.59646
-0.346109,-0.296631,2.555,2.59534
-0.337816,-0.296631,2.555,2.59425
-0.329523,-0.296631,2.555,2.59318
-0.32123,-0.296631,2.555,2.59214
-0.312937,-0.296631,2.555,2.59113
-0.304645,-0.296631,2.555,2.59014
-0.296352,-0.296631,2.555,2.58918
-0.288059,-0.296631,2.555,2.58824
-0.279766,-0.296631,2.555,2.58733
-0.271473,-0.296631,2.555,2.58645
-0.265137,-0.298837,2.574,2.60482
-0.256783,-0.298837,2.574,2.60398
-0.248428,-0.298837,2.574,2.60317
-0.240074,-0.298837,2.574,2.60239
-0.231719,-0.298837,2.574,2.60163
-0.223364,-0.298837,2.574,2.6009
-0.21501,-0.298837,2.574,2.60019
-0.206655,-0.298837,2.574,2.59952
-0.198301,-0.298837,2.574,2.59887
-0.189946,-0.298837,2.574,2.59824
-0.181592,-0.298837,2.574,2.59764
-0.173237,-0.298837,2.574,2.59707
-0.163665,-0.296631,2.555,2.57736
-0.155372,-0.296631,2.555,2.57685
-0.14708,-0.296631,2.555,2.57636
-0.139819,-0.298837,2.574,2.59506
-0.131464,-0.298837,2.574,2.59462
-0.12311,-0.298837,2.574,2.59421
-0.114755,-0.298837,2.574,2.59383
-0.1064,-0.298837,2.574,2.59347
-0.0987696,-0.301043,2.593,2.61228
-0.0903534,-0.301043,2.593,2.61198
-0.0819372,-0.301043,2.593,2.6117
-0.073521,-0.301043,2.593,2.61145
-0.0651047,-0.301043,2.593,2.61123
-0.0566885,-0.301043,2.593,2.61103
-0.0482722,-0.301043,2.593,2.61086
-0.039856,-0.301043,2.593,2.61072
-0.0314398,-0.301043,2.593,2.61061
-0.0230235,-0.301043,2.593,2.61052
-0.0146073,-0.301043,2.593,2.61046
-0.00619107,-0.301043,2.593,2.61042
0.00222516,-0.301043,2.593,2.61042
0.0106414,-0.301043,2.593,2.61044
0.0190576,-0.301043,2.593,2.61049
0.0274739,-0.301043,2.593,2.61056
0.0358901,-0.301043,2.593,2.61066
0.0443063,-0.301043,2.593,2.61079
0.0527226,-0.301043,2.593,2.61095
0.0611388,-0.301043,2.593,2.61113
0.069555,-0.301043,2.593,2.61134
0.0779713,-0.301043,2.593,2.61158
0.0870538,-0.303365,2.613,2.63199
0.095535,-0.303365,2.613,2.63229
0.104016,-0.303365,2.613,2.63261
0.112497,-0.303365,2.613,2.63296
0.121904,-0.305687,2.633,2.65349
0.12946,-0.303365,2.613,2.63373
0.137941,-0.303365,2.613,2.63417
0.146422,-0.303365,2.613,2.63462
0.154903,-0.303365,2.613,2.63511
0.163384,-0.303365,2.613,2.63562
0.173181,-0.305687,2.633,2.65634
0.181727,-0.305687,2.633,2.65691
0.190273,-0.305687,2.633,2.65751
0.198819,-0.305687,2.633,2.65813
0.207365,-0.305687,2.633,2.65878
0.214271,-0.303365,2.613,2.63926
0.222752,-0.303365,2.613,2.63997
0.231233,-0.303365,2.613,2.64069
0.239715,-0.303365,2.613,2.64145
0.248196,-0.303365,2.613,2.64223
0.256677,-0.303365,2.613,2.64304
0.267187,-0.305687,2.633,2.66412
0.273639,-0.303365,2.613,2.64475
0.28212,-0.303365,2.613,2.64564
0.290601,-0.303365,2.613,2.64655
0.296793,-0.301043,2.593,2.62723
0.30521,-0.301043,2.593,2.6282
0.313626,-0.301043,2.593,2.62919
0.319682,-0.298837,2.574,2.61093
0.328037,-0.298837,2.574,2.61197
0.336391,-0.298837,2.574,2.61303
0.344746,-0.298837,2.574,2.61412
0.353101,-0.298837,2.574,2.61524
0.358787,-0.296631,2.555,2.59706
0.36708,-0.296631,2.555,2.59822
0.375373,-0.296631,2.555,2.59941
0.383666,-0.296631,2.555,2.60062
0.394873,-0.298837,2.574,2.6212
0.403228,-0.298837,2.574,2.62247
0.411583,-0.298837,2.574,2.62377
0.419937,-0.298837,2.574,2.6251
0.428292,-0.298837,2.574,2.62645
0.436646,-0.298837,2.574,2.62782
0.445001,-0.298837,2.574,2.62922
0.453355,-0.298837,2.574,2.63065
0.46171,-0.298837,2.574,2.6321
0.470064,-0.298837,2.574,2.63358
0.481951,-0.301043,2.593,2.65453
0.490367,-0.301043,2.593,2.65608
0.498783,-0.301043,2.593,2.65764
0.507199,-0.301043,2.593,2.65923
0.515615,-0.301043,2.593,2.66085
0.528074,-0.303365,2.613,2.68303
0.536555,-0.303365,2.613,2.68471
0.545036,-0.303365,2.613,2.68642
0.553517,-0.303365,2.613,2.68816
0.561998,-0.303365,2.613,2.68991
0.570479,-0.303365,2.613,2.6917
0.574529,-0.301043,2.593,2.67289
0.582945,-0.301043,2.593,2.67472
0.591362,-0.301043,2.593,2.67656
0.595383,-0.298837,2.574,2.65881
0.603738,-0.298837,2.574,2.66069
0.612092,-0.298837,2.574,2.6626
0.615867,-0.296631,2.555,2.64486
0.62416,-0.296631,2.555,2.64681
0.632453,-0.296631,2.555,2.64878
0.635981,-0.294425,2.536,2.63106
0.644212,-0.294425,2.536,2.63306
0.652443,-0.294425,2.536,2.63508
0.660674,-0.294425,2.536,2.63713
0.668906,-0.294425,2.536,2.63921
0.677137,-0.294425,2.536,2.64131
0.685368,-0.294425,2.536,2.64343
0.688403,-0.292219,2.517,2.62575
0.696572,-0.292219,2.517,2.62791
0.704742,-0.292219,2.517,2.63008
0.712911,-0.292219,2.517,2.63229
