-0.756633,-0.105565,2.361,2.48152
-0.748969,-0.105565,2.361,2.4792
-0.741306,-0.105565,2.361,2.47689
-0.733643,-0.105565,2.361,2.47461
-0.72598,-0.105565,2.361,2.47235
-0.718317,-0.105565,2.361,2.47011
-0.710653,-0.105565,2.361,2.46789
-0.70299,-0.105565,2.361,2.4657
-0.700039,-0.10628,2.377,2.48022
-0.692324,-0.10628,2.377,2.47805
-0.684609,-0.10628,2.377,2.47591
-0.681735,-0.10704,2.394,2.49148
-0.673964,-0.10704,2.394,2.48936
-0.666194,-0.10704,2.394,2.48727
-0.663099,-0.1078,2.411,2.50285
-0.655274,-0.1078,2.411,2.50078
-0.647448,-0.1078,2.411,2.49875
-0.639623,-0.1078,2.411,2.49673
-0.636252,-0.10856,2.428,2.51233
-0.628371,-0.10856,2.428,2.51034
-0.620491,-0.10856,2.428,2.50838
-0.616899,-0.109321,2.445,2.52399
-0.608963,-0.109321,2.445,2.52207
-0.601027,-0.109321,2.445,2.52016
-0.597458,-0.110125,2.463,2.53682
-0.589464,-0.110125,2.463,2.53495
-0.581469,-0.110125,2.463,2.5331
-0.577666,-0.11093,2.481,2.54978
-0.569613,-0.11093,2.481,2.54797
-0.561561,-0.11093,2.481,2.54618
-0.557524,-0.111735,2.499,2.56287
-0.549413,-0.111735,2.499,2.56112
-0.541301,-0.111735,2.499,2.55939
-0.53319,-0.111735,2.499,2.55769
-0.525079,-0.111735,2.499,2.55601
-0.520692,-0.11254,2.517,2.57276
-0.512522,-0.11254,2.517,2.57112
-0.504353,-0.11254,2.517,2.5695
-0.496183,-0.11254,2.517,2.56791
-0.488013,-0.11254,2.517,2.56634
-0.479844,-0.11254,2.517,2.5648
-0.471674,-0.11254,2.517,2.56329
-0.463505,-0.11254,2.517,2.56179
-0.458772,-0.113389,2.536,2.57966
-0.450541,-0.113389,2.536,2.5782
-0.44231,-0.113389,2.536,2.57678
-0.434079,-0.113389,2.536,2.57538
-0.425848,-0.113389,2.536,2.574
-0.420745,-0.114239,2.555,2.59193
-0.412452,-0.114239,2.555,2.5906
-0.404159,-0.114239,2.555,2.58929
-0.395866,-0.114239,2.555,2.58801
-0.387574,-0.114239,2.555,2.58675
-0.382101,-0.115088,2.574,2.60475
-0.373747,-0.115088,2.574,2.60354
-0.365392,-0.115088,2.574,2.60235
-0.357037,-0.115088,2.574,2.60119
-0.348683,-0.115088,2.574,2.60006
-0.340328,-0.115088,2.574,2.59895
-0.331974,-0.115088,2.574,2.59787
-0.323619,-0.115088,2.574,2.59682
-0.315265,-0.115088,2.574,2.59579
-0.30691,-0.115088,2.574,2.59479
-0.298555,-0.115088,2.574,2.59381
-0.290201,-0.115088,2.574,2.59286
-0.281846,-0.115088,2.574,2.59194
-0.273492,-0.115088,2.574,2.59105
-0.265137,-0.115088,2.574,2.59018
-0.256783,-0.115088,2.574,2.58934
-0.248428,-0.115088,2.574,2.58852
-0.240074,-0.115088,2.574,2.58773
-0.231719,-0.115088,2.574,2.58697
-0.223364,-0.115088,2.574,2.58624
-0.213423,-0.114239,2.555,2.56644
-0.20513,-0.114239,2.555,2.56577
-0.196837,-0.114239,2.555,2.56512
-0.189946,-0.115088,2.574,2.58356
-0.181592,-0.115088,2.574,2.58296
-0.173237,-0.115088,2.574,2.58239
-0.164882,-0.115088,2.574,2.58184
-0.155372,-0.114239,2.555,2.56227
-0.14708,-0.114239,2.555,2.56178
-0.138787,-0.114239,2.555,2.56132
-0.130494,-0.114239,2.555,2.56088
-0.122201,-0.114239,2.555,2.56047
-0.113908,-0.114239,2.555,2.56009
-0.105615,-0.114239,2.555,2.55973
-0.0980459,-0.115088,2.574,2.57844
-0.0890293,-0.114239,2.555,2.5591
-0.0807364,-0.114239,2.555,2.55883
-0.0724435,-0.114239,2.555,2.55858
-0.0641506,-0.114239,2.555,2.55836
-0.0558577,-0.114239,2.555,2.55816
-0.0479185,-0.115088,2.574,2.57702
-0.039856,-0.115938,2.593,2.5959
-0.0314398,-0.115938,2.593,2.59578
-0.0232011,-0.116832,2.613,2.61571
-0.0148326,-0.117726,2.633,2.63567
-0.00628658,-0.117726,2.633,2.63564
0.00225949,-0.117726,2.633,2.63563
0.0108056,-0.117726,2.633,2.63565
0.0193516,-0.117726,2.633,2.6357
0.0278977,-0.117726,2.633,2.63578
0.0364437,-0.117726,2.633,2.63588
0.0449898,-0.117726,2.633,2.63601
0.0535359,-0.117726,2.633,2.63617
0.0620819,-0.117726,2.633,2.63636
0.070628,-0.117726,2.633,2.63658
0.0785727,-0.116832,2.613,2.61679
0.0870538,-0.116832,2.613,2.61706
0.095535,-0.116832,2.613,2.61735
0.104016,-0.116832,2.613,2.61768
0.111636,-0.115938,2.593,2.59799
0.120052,-0.115938,2.593,2.59837
0.128469,-0.115938,2.593,2.59877
0.136885,-0.115938,2.593,2.5992
0.145301,-0.115938,2.593,2.59965
0.153717,-0.115938,2.593,2.60014
0.162134,-0.115938,2.593,2.60065
0.171865,-0.116832,2.613,2.62125
0.180346,-0.116832,2.613,2.62182
0.188828,-0.116832,2.613,2.62242
0.195799,-0.115938,2.593,2.60297
0.204215,-0.115938,2.593,2.60361
0.212631,-0.115938,2.593,2.60429
0.222752,-0.116832,2.613,2.62508
0.231233,-0.116832,2.613,2.62581
0.239715,-0.116832,2.613,2.62657
0.248196,-0.116832,2.613,2.62736
0.256677,-0.116832,2.613,2.62817
0.265158,-0.116832,2.613,2.62902
0.271545,-0.115938,2.593,2.60976
0.279961,-0.115938,2.593,2.61065
0.288377,-0.115938,2.593,2.61156
0.294619,-0.115088,2.574,2.59336
0.302973,-0.115088,2.574,2.59432
0.311328,-0.115088,2.574,2.59531
0.319682,-0.115088,2.574,2.59633
0.325615,-0.114239,2.555,2.5782
0.333908,-0.114239,2.555,2.57926
0.342201,-0.114239,2.555,2.58034
0.347888,-0.113389,2.536,2.56226
0.353451,-0.11254,2.517,2.54419
0.36162,-0.11254,2.517,2.54533
0.36979,-0.11254,2.517,2.54651
0.37796,-0.11254,2.517,2.54771
0.386129,-0.11254,2.517,2.54893
0.394299,-0.11254,2.517,2.55018
0.39959,-0.111735,2.499,2.53321
0.407701,-0.111735,2.499,2.5345
0.415812,-0.111735,2.499,2.53582
0.423923,-0.111735,2.499,2.53716
0.432035,-0.111735,2.499,2.53853
0.440146,-0.111735,2.499,2.53992
0.448257,-0.111735,2.499,2.54134
0.456368,-0.111735,2.499,2.54279
0.464479,-0.111735,2.499,2.54425
0.47259,-0.111735,2.499,2.54575
0.480701,-0.111735,2.499,2.54727
0.488812,-0.111735,2.499,2.54881
0.496924,-0.111735,2.499,2.55038
0.508672,-0.11254,2.517,2.57035
0.516842,-0.11254,2.517,2.57198
0.525012,-0.11254,2.517,2.57363
0.533181,-0.11254,2.517,2.57531
0.545437,-0.113389,2.536,2.59647
0.553668,-0.113389,2.536,2.59821
0.5619,-0.113389,2.536,2.59998
0.574402,-0.114239,2.555,2.62126
0.587028,-0.115088,2.574,2.6426
0.595383,-0.115088,2.574,2.64447
0.603738,-0.115088,2.574,2.64636
0.61661,-0.115938,2.593,2.66783
0.625027,-0.115938,2.593,2.66978
0.633443,-0.115938,2.593,2.67177
0.64681,-0.116832,2.613,2.6944
0.655291,-0.116832,2.613,2.69645
0.663772,-0.116832,2.613,2.69852
0.672253,-0.116832,2.613,2.70062
0.680734,-0.116832,2.613,2.70274
0.689215,-0.116832,2.613,2.70489
0.692356,-0.115938,2.593,2.68634
0.700773,-0.115938,2.593,2.68853
0.709189,-0.115938,2.593,2.69073
0.717605,-0.115938,2.593,2.69296
0.726021,-0.115938,2.593,2.69522
0.734438,-0.115938,2.593,2.6975
0.737411,-0.115088,2.574,2.68002
0.745765,-0.115088,2.574,2.68233
0.75412,-0.115088,2.574,2.68466
0.756846,-0.114239,2.555,2.66719
0.765139,-0.114239,2.555,2.66955
0.773432,-0.114239,2.555,2.67194
0.781725,-0.114239,2.555,2.67435
0.790018,-0.114239,2.555,2.67679
0.798311,-0.114239,2.555,2.67925
0.800605,-0.113389,2.536,2.66179
0.808836,-0.113389,2.536,2.66428
0.817068,-0.113389,2.536,2.66679
0.825299,-0.113389,2.536,2.66932
0.83353,-0.113389,2.536,2.67188
0.841761,-0.113389,2.536,2.67446
0.849993,-0.113389,2.536,2.67706
0.851794,-0.11254,2.517,2.65961
0.853814,-0.111735,2.499,2.6432
0.861925,-0.111735,2.499,2.64583
0.863769,-0.11093,2.481,2.6294
0.871822,-0.11093,2.481,2.63206
0.879874,-0.11093,2.481,2.63474
0.881485,-0.110125,2.463,2.6183
0.889479,-0.110125,2.463,2.62101
0.897474,-0.110125,2.463,2.62373
0.898851,-0.109321,2.445,2.60728
0.906787,-0.109321,2.445,2.61003
0.908362,-0.10856,2.428,2.59463
0.916243,-0.10856,2.428,2.5974
0.924124,-0.10856,2.428,2.60019
0.925479,-0.1078,2.411,2.58477
0.933304,-0.1078,2.411,2.58759
0.934494,-0.10704,2.394,2.57215
0.942264,-0.10704,2.394,2.57499
0.950035,-0.10704,2.394,2.57784
0.957805,-0.10704,2.394,2.58071
0.965575,-0.10704,2.394,2.58361
0.980257,-0.1078,2.411,2.60489
0.988083,-0.1078,2.411,2.60784
1.00293,-0.10856,2.428,2.62923
1.01789,-0.109321,2.445,2.65067
1.03338,-0.110125,2.463,2.67327
1.04137,-0.110125,2.463,2.67637
1.05703,-0.11093,2.481,2.69907
1.09685,-0.114239,2.555,2.78283
1.10515,-0.114239,2.555,2.78611
1.15658,-0.118665,2.654,2.8975
1.20252,-0.122466,2.739,2.99385
1.26183,-0.127563,2.853,3.12219
1.27109,-0.127563,2.853,3.12595
1.31311,-0.130827,2.926,3.2098
1.3339,-0.131945,2.951,3.24116
1.34348,-0.131945,2.951,3.24511
1.3769,-0.13427,3.003,3.30634
1.39912,-0.135477,3.03,3.34018
1.40895,-0.135477,3.03,3.34431
1.41879,-0.135477,3.03,3.34846
1.41589,-0.13427,3.003,3.32277
1.42564,-0.13427,3.003,3.32693
1.43538,-0.13427,3.003,3.33112
1.44513,-0.13427,3.003,3.33533
1.45488,-0.13427,3.003,3.33957
1.46463,-0.13427,3.003,3.34383
1.47437,-0.13427,3.003,3.34811
1.48412,-0.13427,3.003,3.35241
1.49387,-0.13427,3.003,3.35674
1.50361,-0.13427,3.003,3.36109
1.52697,-0.135477,3.03,3.39572
1.52311,-0.13427,3.003,3.36985
1.53285,-0.13427,3.003,3.37427
1.55647,-0.135477,3.03,3.40908
1.59422,-0.137891,3.084,3.47442
1.60423,-0.137891,3.084,3.47903
1.61424,-0.137891,3.084,3.48365
1.639,-0.139143,3.112,3.51997
1.6491,-0.139143,3.112,3.52469
1.67466,-0.14044,3.141,3.56232
1.70041,-0.141737,3.17,3.60005
1.7107,-0.141737,3.17,3.60492
1.73673,-0.143033,3.199,3.64284
1.74712,-0.143033,3.199,3.6478
1.7575,-0.143033,3.199,3.65279
1.76788,-0.143033,3.199,3.6578
1.77827,-0.143033,3.199,3.66283
1.78865,-0.143033,3.199,3.66788
1.79903,-0.143033,3.199,3.67295
1.80941,-0.143033,3.199,3.67805
1.8198,-0.143033,3.199,3.68317
1.81359,-0.141737,3.17,3.65487
1.82388,-0.141737,3.17,3.65999
1.83417,-0.141737,3.17,3.66513
1.82758,-0.14044,3.141,3.63671
1.82081,-0.139143,3.112,3.60822
1.83091,-0.139143,3.112,3.61333
1.84101,-0.139143,3.112,3.61846
1.85111,-0.139143,3.112,3.62361
1.84447,-0.137891,3.084,3.59613
1.85448,-0.137891,3.084,3.60127
1.86449,-0.137891,3.084,3.60644
1.85809,-0.136684,3.057,3.58
1.86801,-0.136684,3.057,3.58516
1.86134,-0.135477,3.03,3.55863
1.83845,-0.133107,2.977,3.50145
1.84811,-0.133107,2.977,3.50653
1.84155,-0.131945,2.951,3.48096
1.83545,-0.130827,2.926,3.45651
1.84494,-0.130827,2.926,3.46156
1.82338,-0.128636,2.877,3.40858
1.80215,-0.12649,2.829,3.35663
1.81133,-0.12649,2.829,3.36157
1.79091,-0.124433,2.783,3.31179
1.77148,-0.122466,2.739,3.26424
1.75242,-0.120543,2.696,3.21775
1.76117,-0.120543,2.696,3.22253
1.74235,-0.118665,2.654,3.17704
1.73711,-0.117726,2.633,3.1566
1.74566,-0.117726,2.633,3.16131
1.74088,-0.116832,2.613,3.14199
1.72325,-0.115088,2.574,3.09973
1.7316,-0.115088,2.574,3.10438
1.72711,-0.114239,2.555,3.0861
1.7096,-0.11254,2.517,3.04478
-1.96257,-0.11731,2.829,3.4451
-1.92163,-0.115403,2.783,3.38394
-1.91259,-0.115403,2.783,3.37882
-1.88851,-0.11449,2.761,3.34704
-1.8496,-0.112666,2.717,3.28874
-1.84078,-0.112666,2.717,3.28379
-1.8178,-0.111795,2.696,3.25351
-1.79496,-0.110924,2.675,3.22332
-1.78628,-0.110924,2.675,3.2185
-1.77759,-0.110924,2.675,3.21368
-1.75502,-0.110053,2.654,3.1837
-1.74641,-0.110053,2.654,3.17896
-1.7378,-0.110053,2.654,3.17423
-1.72918,-0.110053,2.654,3.16953
-1.72057,-0.110053,2.654,3.16483
nan,nan,nan,NaN
-1.74377,-0.112666,2.717,3.23041
-1.73495,-0.112666,2.717,3.22565
nan,nan,nan,NaN
-1.77357,-0.116356,2.806,3.32155
-1.76446,-0.116356,2.806,3.3167
-1.78476,-0.118305,2.853,3.36734
-1.80537,-0.120296,2.901,3.41901
-1.79595,-0.120296,2.901,3.41405
-1.80193,-0.121333,2.926,3.43848
-1.82368,-0.123447,2.977,3.49336
-1.81401,-0.123447,2.977,3.48833
-1.82011,-0.124525,3.003,3.51373
-1.82664,-0.125645,3.03,3.54024
-1.81681,-0.125645,3.03,3.53518
-1.82307,-0.126765,3.057,3.56159
-1.81315,-0.126765,3.057,3.55652
-1.81915,-0.127884,3.084,3.58284
-1.80915,-0.127884,3.084,3.57777
-1.79914,-0.127884,3.084,3.57272
nan,nan,nan,NaN
nan,nan,nan,NaN
nan,nan,nan,NaN
nan,nan,nan,NaN
nan,nan,nan,NaN
nan,nan,nan,NaN
nan,nan,nan,NaN
nan,nan,nan,NaN
nan,nan,nan,NaN
nan,nan,nan,NaN
nan,nan,nan,NaN
nan,nan,nan,NaN
nan,nan,nan,NaN
nan,nan,nan,NaN
nan,nan,nan,NaN
nan,nan,nan,NaN
nan,nan,nan,NaN
nan,nan,nan,NaN
nan,nan,nan,NaN
nan,nan,nan,NaN
nan,nan,nan,NaN
nan,nan,nan,NaN
nan,nan,nan,NaN
nan,nan,nan,NaN
nan,nan,nan,NaN
nan,nan,nan,NaN
nan,nan,nan,NaN
-1.23075,-0.103626,2.499,2.78756
-1.20502,-0.102133,2.463,2.74388
-1.19703,-0.102133,2.463,2.74038
-1.18035,-0.101387,2.445,2.7169
-1.16426,-0.100682,2.428,2.69459
-1.15638,-0.100682,2.428,2.69119
-1.14046,-0.099977,2.411,2.669
-1.12464,-0.0992721,2.394,2.64687
-1.11687,-0.0992721,2.394,2.64358
-1.10123,-0.0985671,2.377,2.62155
-1.09351,-0.0985671,2.377,2.61832
-1.07849,-0.0979037,2.361,2.59751
-1.07082,-0.0979037,2.361,2.59433
-1.06316,-0.0979037,2.361,2.59118
-1.0555,-0.0979037,2.361,2.58805
-1.04784,-0.0979037,2.361,2.58493
-1.03312,-0.0972402,2.345,2.56434
-1.02551,-0.0972402,2.345,2.56128
-1.0179,-0.0972402,2.345,2.55824
-1.01029,-0.0972402,2.345,2.55522
-1.00268,-0.0972402,2.345,2.55222
-1.00186,-0.0979037,2.361,2.56664
-0.994193,-0.0979037,2.361,2.56365
-0.986529,-0.0979037,2.361,2.56069
-0.978866,-0.0979037,2.361,2.55775
-0.971203,-0.0979037,2.361,2.55483
-0.96354,-0.0979037,2.361,2.55192
-0.955876,-0.0979037,2.361,2.54904
-0.948213,-0.0979037,2.361,2.54618
-0.94055,-0.0979037,2.361,2.54333
-0.939209,-0.0985671,2.377,2.55773
-0.931494,-0.0985671,2.377,2.5549
-0.91756,-0.0979037,2.361,2.53492
-0.909897,-0.0979037,2.361,2.53216
-0.902234,-0.0979037,2.361,2.52941
-0.894571,-0.0979037,2.361,2.52669
-0.886907,-0.0979037,2.361,2.52399
-0.879244,-0.0979037,2.361,2.5213
-0.871581,-0.0979037,2.361,2.51864
-0.863918,-0.0979037,2.361,2.516
-0.856255,-0.0979037,2.361,2.51338
-0.848591,-0.0979037,2.361,2.51078
-0.840928,-0.0979037,2.361,2.5082
-0.833265,-0.0979037,2.361,2.50564
-0.825602,-0.0979037,2.361,2.5031
-0.817938,-0.0979037,2.361,2.50059
-0.804784,-0.0972402,2.345,2.48116
-0.797173,-0.0972402,2.345,2.4787
-0.789562,-0.0972402,2.345,2.47626
-0.78195,-0.0972402,2.345,2.47385
-0.774339,-0.0972402,2.345,2.47145
-0.771959,-0.0979037,2.361,2.48593
-0.764296,-0.0979037,2.361,2.48356
-0.756633,-0.0979037,2.361,2.48121
-0.748969,-0.0979037,2.361,2.47888
-0.741306,-0.0979037,2.361,2.47658
-0.733643,-0.0979037,2.361,2.4743
-0.72598,-0.0979037,2.361,2.47203
-0.718317,-0.0979037,2.361,2.46979
-0.710653,-0.0979037,2.361,2.46758
-0.70299,-0.0979037,2.361,2.46538
-0.700039,-0.0985671,2.377,2.4799
-0.692324,-0.0985671,2.377,2.47773
-0.684609,-0.0985671,2.377,2.47559
-0.681735,-0.0992721,2.394,2.49116
-0.673964,-0.0992721,2.394,2.48904
-0.666194,-0.0992721,2.394,2.48695
-0.663099,-0.099977,2.411,2.50252
-0.655274,-0.099977,2.411,2.50046
-0.647448,-0.099977,2.411,2.49842
-0.639623,-0.099977,2.411,2.4964
-0.636252,-0.100682,2.428,2.512
-0.628371,-0.100682,2.428,2.51001
-0.620491,-0.100682,2.428,2.50805
-0.616899,-0.101387,2.445,2.52366
-0.608963,-0.101387,2.445,2.52173
-0.605452,-0.102133,2.463,2.53838
-0.597458,-0.102133,2.463,2.53648
-0.593771,-0.10288,2.481,2.55314
-0.585719,-0.10288,2.481,2.55128
-0.577666,-0.10288,2.481,2.54944
-0.573746,-0.103626,2.499,2.56611
-0.565635,-0.103626,2.499,2.56431
-0.557524,-0.103626,2.499,2.56253
-0.55337,-0.104373,2.517,2.57923
-0.541301,-0.103626,2.499,2.55905
-0.53319,-0.103626,2.499,2.55735
-0.528861,-0.104373,2.517,2.57408
-0.520692,-0.104373,2.517,2.57241
-0.512522,-0.104373,2.517,2.57077
-0.504353,-0.104373,2.517,2.56915
-0.496183,-0.104373,2.517,2.56756
-0.488013,-0.104373,2.517,2.566
-0.479844,-0.104373,2.517,2.56446
-0.475235,-0.10516,2.536,2.58229
-0.467004,-0.10516,2.536,2.58078
-0.458772,-0.10516,2.536,2.57931
-0.450541,-0.10516,2.536,2.57786
-0.445624,-0.105948,2.555,2.59573
-0.434079,-0.10516,2.536,2.57503
-0.425848,-0.10516,2.536,2.57366
-0.420745,-0.105948,2.555,2.59158
-0.412452,-0.105948,2.555,2.59024
-0.404159,-0.105948,2.555,2.58894
-0.395866,-0.105948,2.555,2.58766
-0.387574,-0.105948,2.555,2.5864
-0.379281,-0.105948,2.555,2.58517
-0.373747,-0.106736,2.574,2.60318
-0.365392,-0.106736,2.574,2.602
-0.357037,-0.106736,2.574,2.60084
-0.348683,-0.106736,2.574,2.5997
-0.340328,-0.106736,2.574,2.59859
-0.331974,-0.106736,2.574,2.59751
-0.323619,-0.106736,2.574,2.59646
-0.315265,-0.106736,2.574,2.59543
-0.304645,-0.105948,2.555,2.57528
-0.296352,-0.105948,2.555,2.57431
-0.290201,-0.106736,2.574,2.59251
-0.279766,-0.105948,2.555,2.57245
-0.271473,-0.105948,2.555,2.57157
-0.26318,-0.105948,2.555,2.5707
-0.254887,-0.105948,2.555,2.56987
-0.246594,-0.105948,2.555,2.56906
-0.238301,-0.105948,2.555,2.56828
-0.230009,-0.105948,2.555,2.56752
-0.221716,-0.105948,2.555,2.56679
-0.213423,-0.105948,2.555,2.56609
-0.20513,-0.105948,2.555,2.56541
-0.196837,-0.105948,2.555,2.56476
-0.188544,-0.105948,2.555,2.56414
-0.180251,-0.105948,2.555,2.56354
-0.171958,-0.105948,2.555,2.56297
-0.163665,-0.105948,2.555,2.56243
-0.155372,-0.105948,2.555,2.56191
-0.14708,-0.105948,2.555,2.56142
-0.138787,-0.105948,2.555,2.56096
-0.129523,-0.10516,2.536,2.54148
-0.121292,-0.10516,2.536,2.54108
-0.113061,-0.10516,2.536,2.5407
-0.10483,-0.10516,2.536,2.54034
-0.0980459,-0.106736,2.574,2.57808
-0.0890293,-0.105948,2.555,2.55875
-0.0807364,-0.105948,2.555,2.55847
-0.0724435,-0.105948,2.555,2.55822
-0.0641506,-0.105948,2.555,2.558
-0.0558577,-0.105948,2.555,2.55781
-0.0479185,-0.106736,2.574,2.57666
-0.039856,-0.107524,2.593,2.59553
-0.0314398,-0.107524,2.593,2.59542
-0.0232011,-0.108353,2.613,2.61535
-0.0148326,-0.109183,2.633,2.6353
-0.00628658,-0.109183,2.633,2.63527
0.00225949,-0.109183,2.633,2.63526
0.0108056,-0.109183,2.633,2.63529
0.0193516,-0.109183,2.633,2.63533
0.0278977,-0.109183,2.633,2.63541
0.0364437,-0.109183,2.633,2.63551
0.0453486,-0.110053,2.654,2.65667
0.0539629,-0.110053,2.654,2.65683
0.0620819,-0.109183,2.633,2.63599
0.070628,-0.109183,2.633,2.63621
0.0791741,-0.109183,2.633,2.63645
0.0877201,-0.109183,2.633,2.63672
0.0962662,-0.109183,2.633,2.63702
0.104016,-0.108353,2.613,2.61731
0.111636,-0.107524,2.593,2.59763
0.120052,-0.107524,2.593,2.598
0.128469,-0.107524,2.593,2.59841
0.136885,-0.107524,2.593,2.59884
0.145301,-0.107524,2.593,2.59929
0.153717,-0.107524,2.593,2.59978
0.162134,-0.107524,2.593,2.60029
0.171865,-0.108353,2.613,2.62089
0.180346,-0.108353,2.613,2.62146
0.188828,-0.108353,2.613,2.62205
0.195799,-0.107524,2.593,2.6026
0.204215,-0.107524,2.593,2.60325
0.212631,-0.107524,2.593,2.60392
0.222752,-0.108353,2.613,2.62472
0.231233,-0.108353,2.613,2.62545
0.239715,-0.108353,2.613,2.62621
0.248196,-0.108353,2.613,2.627
0.256677,-0.108353,2.613,2.62781
0.265158,-0.108353,2.613,2.62865
0.271545,-0.107524,2.593,2.6094
0.279961,-0.107524,2.593,2.61029
0.288377,-0.107524,2.593,2.6112
0.294619,-0.106736,2.574,2.593
0.302973,-0.106736,2.574,2.59397
0.311328,-0.106736,2.574,2.59496
0.319682,-0.106736,2.574,2.59597
0.325615,-0.105948,2.555,2.57784
0.333908,-0.105948,2.555,2.5789
0.342201,-0.105948,2.555,2.57999
0.347888,-0.10516,2.536,2.56191
0.353451,-0.104373,2.517,2.54384
0.36162,-0.104373,2.517,2.54499
0.36979,-0.104373,2.517,2.54616
0.37796,-0.104373,2.517,2.54736
0.386129,-0.104373,2.517,2.54858
0.391479,-0.103626,2.499,2.5316
0.39959,-0.103626,2.499,2.53287
0.407701,-0.103626,2.499,2.53416
0.415812,-0.103626,2.499,2.53548
0.423923,-0.103626,2.499,2.53682
0.432035,-0.103626,2.499,2.53819
0.440146,-0.103626,2.499,2.53958
0.448257,-0.103626,2.499,2.541
0.456368,-0.103626,2.499,2.54244
0.464479,-0.103626,2.499,2.54391
0.47259,-0.103626,2.499,2.5454
0.480701,-0.103626,2.499,2.54692
0.488812,-0.103626,2.499,2.54847
0.496924,-0.103626,2.499,2.55003
0.508672,-0.104373,2.517,2.57001
0.516842,-0.104373,2.517,2.57164
0.525012,-0.104373,2.517,2.57329
0.533181,-0.104373,2.517,2.57497
0.545437,-0.10516,2.536,2.59612
0.553668,-0.10516,2.536,2.59787
0.5619,-0.10516,2.536,2.59963
0.574402,-0.105948,2.555,2.62091
0.587028,-0.106736,2.574,2.64225
0.595383,-0.106736,2.574,2.64412
0.603738,-0.106736,2.574,2.64601
0.61661,-0.107524,2.593,2.66747
0.625027,-0.107524,2.593,2.66943
0.633443,-0.107524,2.593,2.67142
0.64681,-0.108353,2.613,2.69404
0.655291,-0.108353,2.613,2.69609
0.663772,-0.108353,2.613,2.69817
0.672253,-0.108353,2.613,2.70027
0.680734,-0.108353,2.613,2.70239
0.689215,-0.108353,2.613,2.70454
0.692356,-0.107524,2.593,2.68599
0.700773,-0.107524,2.593,2.68818
0.709189,-0.107524,2.593,2.69038
0.717605,-0.107524,2.593,2.69261
0.726021,-0.107524,2.593,2.69487
0.734438,-0.107524,2.593,2.69715
0.737411,-0.106736,2.574,2.67967
0.745765,-0.106736,2.574,2.68198
0.75412,-0.106736,2.574,2.68432
0.756846,-0.105948,2.555,2.66685
0.765139,-0.105948,2.555,2.66921
0.773432,-0.105948,2.555,2.6716
0.781725,-0.105948,2.555,2.67401
0.790018,-0.105948,2.555,2.67645
0.798311,-0.105948,2.555,2.67891
0.800605,-0.10516,2.536,2.66145
0.808836,-0.10516,2.536,2.66394
0.817068,-0.10516,2.536,2.66645
0.825299,-0.10516,2.536,2.66898
0.83353,-0.10516,2.536,2.67154
0.841761,-0.10516,2.536,2.67412
0.849993,-0.10516,2.536,2.67672
0.851794,-0.104373,2.517,2.65927
0.859963,-0.104373,2.517,2.6619
0.868133,-0.104373,2.517,2.66455
0.870036,-0.103626,2.499,2.64815
0.871822,-0.10288,2.481,2.63173
0.879874,-0.10288,2.481,2.63441
0.887927,-0.10288,2.481,2.63711
0.889479,-0.102133,2.463,2.62068
0.897474,-0.102133,2.463,2.62341
0.905468,-0.102133,2.463,2.62615
0.906787,-0.101387,2.445,2.60971
0.914722,-0.101387,2.445,2.61247
0.922658,-0.101387,2.445,2.61526
0.930594,-0.101387,2.445,2.61807
0.932004,-0.100682,2.428,2.60268
0.939885,-0.100682,2.428,2.60551
0.947766,-0.100682,2.428,2.60837
0.948955,-0.099977,2.411,2.59296
0.956781,-0.099977,2.411,2.59583
0.964606,-0.099977,2.411,2.59873
0.972432,-0.099977,2.411,2.60164
0.987169,-0.100682,2.428,2.62294
0.99505,-0.100682,2.428,2.62592
1.00995,-0.101387,2.445,2.64732
1.02538,-0.102133,2.463,2.66987
1.04093,-0.10288,2.481,2.69249
1.04898,-0.10288,2.481,2.69561
1.07237,-0.104373,2.517,2.73791
1.11317,-0.107524,2.593,2.82389
1.12158,-0.107524,2.593,2.82722
1.16574,-0.110924,2.675,2.92008
1.21217,-0.11449,2.761,3.01755
1.26183,-0.118305,2.853,3.12183
1.27109,-0.118305,2.853,3.12558
1.31311,-0.121333,2.926,3.20943
1.3339,-0.122369,2.951,3.24078
1.34348,-0.122369,2.951,3.24474
1.3769,-0.124525,3.003,3.30596
1.39912,-0.125645,3.03,3.33979
1.40895,-0.125645,3.03,3.34392
1.41879,-0.125645,3.03,3.34808
1.41589,-0.124525,3.003,3.32239
1.42564,-0.124525,3.003,3.32655
1.43538,-0.124525,3.003,3.33074
1.44513,-0.124525,3.003,3.33495
1.45488,-0.124525,3.003,3.33919
1.46463,-0.124525,3.003,3.34345
1.47437,-0.124525,3.003,3.34773
1.48412,-0.124525,3.003,3.35203
1.49387,-0.124525,3.003,3.35636
1.50361,-0.124525,3.003,3.36071
1.51336,-0.124525,3.003,3.36508
1.52311,-0.124525,3.003,3.36948
1.53285,-0.124525,3.003,3.37389
1.55647,-0.125645,3.03,3.40871
1.58026,-0.126765,3.057,3.44362
1.59019,-0.126765,3.057,3.44819
1.61424,-0.127884,3.084,3.48327
1.62425,-0.127884,3.084,3.48792
1.63426,-0.127884,3.084,3.49259
1.6592,-0.129045,3.112,3.52904
1.68485,-0.130248,3.141,3.56673
1.69505,-0.130248,3.141,3.57156
1.70524,-0.130248,3.141,3.57641
1.71544,-0.130248,3.141,3.58128
1.74157,-0.13145,3.17,3.61929
1.75186,-0.13145,3.17,3.62425
1.76214,-0.13145,3.17,3.62923
1.77243,-0.13145,3.17,3.63424
1.76641,-0.130248,3.141,3.60598
1.77661,-0.130248,3.141,3.61098
1.7868,-0.130248,3.141,3.61601
1.797,-0.130248,3.141,3.62106
1.79051,-0.129045,3.112,3.59265
1.80061,-0.129045,3.112,3.59769
1.79442,-0.127884,3.084,3.57034
1.80443,-0.127884,3.084,3.57538
1.83091,-0.129045,3.112,3.61295
1.84101,-0.129045,3.112,3.61808
1.85111,-0.129045,3.112,3.62323
1.84447,-0.127884,3.084,3.59576
1.85448,-0.127884,3.084,3.6009
1.86449,-0.127884,3.084,3.60607
1.85809,-0.126765,3.057,3.57964
1.86801,-0.126765,3.057,3.5848
1.86134,-0.125645,3.03,3.55827
1.83845,-0.123447,2.977,3.50109
1.84811,-0.123447,2.977,3.50618
1.84155,-0.122369,2.951,3.48061
1.83545,-0.121333,2.926,3.45616
1.84494,-0.121333,2.926,3.46122
1.82338,-0.119301,2.877,3.40824
1.80215,-0.11731,2.829,3.3563
1.81133,-0.11731,2.829,3.36124
1.79091,-0.115403,2.783,3.31146
1.77148,-0.113578,2.739,3.26392
1.75242,-0.111795,2.696,3.21744
1.76117,-0.111795,2.696,3.22221
1.74235,-0.110053,2.654,3.17673
1.73711,-0.109183,2.633,3.15629
1.74566,-0.109183,2.633,3.161
1.74088,-0.108353,2.613,3.14168
1.72325,-0.106736,2.574,3.09943
1.7316,-0.106736,2.574,3.10408
1.72711,-0.105948,2.555,3.0858
1.7096,-0.104373,2.517,3.04449
-1.96257,-0.108131,2.829,3.4448
-1.92163,-0.106372,2.783,3.38364
-1.91259,-0.106372,2.783,3.37852
-1.88851,-0.105531,2.761,3.34675
-1.8496,-0.10385,2.717,3.28845
-1.84078,-0.10385,2.717,3.28349
-1.8178,-0.103047,2.696,3.25322
-1.79496,-0.102244,2.675,3.22304
-1.78628,-0.102244,2.675,3.21821
-1.77759,-0.102244,2.675,3.2134
-1.75502,-0.101442,2.654,3.18341
-1.74641,-0.101442,2.654,3.17867
-1.7378,-0.101442,2.654,3.17395
-1.72918,-0.101442,2.654,3.16924
-1.72057,-0.101442,2.654,3.16455
-1.7255,-0.102244,2.675,3.18487
-1.71682,-0.102244,2.675,3.18018
-1.73495,-0.10385,2.717,3.22536
nan,nan,nan,NaN
-1.77357,-0.107251,2.806,3.32125
-1.76446,-0.107251,2.806,3.31639
-1.78476,-0.109048,2.853,3.36703
-1.80537,-0.110883,2.901,3.41869
-1.79595,-0.110883,2.901,3.41373
-1.80193,-0.111838,2.926,3.43816
-1.80775,-0.112794,2.951,3.46253
-1.79817,-0.112794,2.951,3.45753
-1.82011,-0.114781,3.003,3.5134
-1.81036,-0.114781,3.003,3.50836
-1.80062,-0.114781,3.003,3.50334
-1.80697,-0.115813,3.03,3.5298
-1.81315,-0.116845,3.057,3.55618
-1.80323,-0.116845,3.057,3.55113
-1.79331,-0.116845,3.057,3.5461
-1.79914,-0.117877,3.084,3.57237
nan,nan,nan,NaN
nan,nan,nan,NaN
nan,nan,nan,NaN
nan,nan,nan,NaN
nan,nan,nan,NaN
nan,nan,nan,NaN
nan,nan,nan,NaN
nan,nan,nan,NaN
nan,nan,nan,NaN
nan,nan,nan,NaN
nan,nan,nan,NaN
nan,nan,nan,NaN
nan,nan,nan,NaN
nan,nan,nan,NaN
nan,nan,nan,NaN
nan,nan,nan,NaN
nan,nan,nan,NaN
nan,nan,nan,NaN
nan,nan,nan,NaN
nan,nan,nan,NaN
nan,nan,nan,NaN
nan,nan,nan,NaN
nan,nan,nan,NaN
nan,nan,nan,NaN
nan,nan,nan,NaN
nan,nan,nan,NaN
nan,nan,nan,NaN
-1.23075,-0.0955173,2.499,2.78727
-1.20502,-0.0941413,2.463,2.7436
-1.19703,-0.0941413,2.463,2.74009
-1.18035,-0.0934533,2.445,2.71661
-1.17241,-0.0934533,2.445,2.71317
-1.16447,-0.0934533,2.445,2.70975
-1.1485,-0.0928035,2.428,2.68753
-1.13263,-0.0921537,2.411,2.66538
-1.1248,-0.0921537,2.411,2.66207
-1.1091,-0.0915039,2.394,2.64002
-1.09351,-0.0908541,2.377,2.61804
-1.0858,-0.0908541,2.377,2.61483
-1.07808,-0.0908541,2.377,2.61164
-1.06316,-0.0902426,2.361,2.5909
-1.0555,-0.0902426,2.361,2.58777
-1.04784,-0.0902426,2.361,2.58465
-1.04017,-0.0902426,2.361,2.58155
-1.03251,-0.0902426,2.361,2.57848
-1.02485,-0.0902426,2.361,2.57542
-1.01718,-0.0902426,2.361,2.57238
-1.00952,-0.0902426,2.361,2.56936
-1.00186,-0.0902426,2.361,2.56636
-0.994193,-0.0902426,2.361,2.56337
-0.986529,-0.0902426,2.361,2.56041
-0.978866,-0.0902426,2.361,2.55747
-0.977785,-0.0908541,2.377,2.57186
-0.970069,-0.0908541,2.377,2.56893
-0.962354,-0.0908541,2.377,2.56603
-0.954639,-0.0908541,2.377,2.56315
-0.946924,-0.0908541,2.377,2.56028
-0.939209,-0.0908541,2.377,2.55744
-0.931494,-0.0908541,2.377,2.55462
-0.923778,-0.0908541,2.377,2.55181
-0.916063,-0.0908541,2.377,2.54903
-0.908348,-0.0908541,2.377,2.54627
-0.900633,-0.0908541,2.377,2.54353
-0.892918,-0.0908541,2.377,2.5408
-0.885203,-0.0908541,2.377,2.5381
-0.877488,-0.0908541,2.377,2.53542
-0.869772,-0.0908541,2.377,2.53276
-0.862057,-0.0908541,2.377,2.53012
-0.854342,-0.0908541,2.377,2.52751
-0.840928,-0.0902426,2.361,2.50791
-0.833265,-0.0902426,2.361,2.50535
-0.825602,-0.0902426,2.361,2.50282
-0.817938,-0.0902426,2.361,2.5003
-0.810275,-0.0902426,2.361,2.4978
-0.802612,-0.0902426,2.361,2.49533
-0.794949,-0.0902426,2.361,2.49287
-0.787286,-0.0902426,2.361,2.49044
-0.779622,-0.0902426,2.361,2.48803
-0.771959,-0.0902426,2.361,2.48564
-0.764296,-0.0902426,2.361,2.48327
-0.756633,-0.0902426,2.361,2.48092
-0.748969,-0.0902426,2.361,2.47859
-0.741306,-0.0902426,2.361,2.47629
-0.733643,-0.0902426,2.361,2.474
-0.7309,-0.0908541,2.377,2.48849
-0.723184,-0.0908541,2.377,2.48624
-0.715469,-0.0908541,2.377,2.484
-0.707754,-0.0908541,2.377,2.48179
-0.700039,-0.0908541,2.377,2.4796
-0.692324,-0.0908541,2.377,2.47744
-0.689505,-0.0915039,2.394,2.493
-0.681735,-0.0915039,2.394,2.49086
-0.673964,-0.0915039,2.394,2.48874
-0.666194,-0.0915039,2.394,2.48665
-0.663099,-0.0921537,2.411,2.50222
-0.655274,-0.0921537,2.411,2.50016
-0.647448,-0.0921537,2.411,2.49812
-0.639623,-0.0921537,2.411,2.4961
-0.636252,-0.0928035,2.428,2.5117
-0.628371,-0.0928035,2.428,2.50971
-0.620491,-0.0928035,2.428,2.50775
-0.616899,-0.0934533,2.445,2.52336
-0.608963,-0.0934533,2.445,2.52143
-0.605452,-0.0941413,2.463,2.53807
-0.601824,-0.0948293,2.481,2.55471
-0.593771,-0.0948293,2.481,2.55283
-0.585719,-0.0948293,2.481,2.55096
-0.581857,-0.0955173,2.499,2.56762
-0.573746,-0.0955173,2.499,2.5658
-0.565635,-0.0955173,2.499,2.56399
-0.561539,-0.0962052,2.517,2.58067
-0.55337,-0.0962052,2.517,2.57891
-0.5452,-0.0962052,2.517,2.57717
-0.537031,-0.0962052,2.517,2.57545
-0.528861,-0.0962052,2.517,2.57376
-0.520692,-0.0962052,2.517,2.57209
-0.512522,-0.0962052,2.517,2.57045
-0.50816,-0.0969315,2.536,2.58823
-0.499929,-0.0969315,2.536,2.58662
-0.491697,-0.0969315,2.536,2.58505
-0.483466,-0.0969315,2.536,2.58349
-0.475235,-0.0969315,2.536,2.58196
-0.467004,-0.0969315,2.536,2.58046
-0.458772,-0.0969315,2.536,2.57898
-0.453917,-0.0976577,2.555,2.59684
-0.445624,-0.0976577,2.555,2.59541
-0.434079,-0.0969315,2.536,2.57471
-0.425848,-0.0969315,2.536,2.57333
-0.420745,-0.0976577,2.555,2.59125
-0.412452,-0.0976577,2.555,2.58992
-0.404159,-0.0976577,2.555,2.58861
-0.395866,-0.0976577,2.555,2.58733
-0.387574,-0.0976577,2.555,2.58607
-0.379281,-0.0976577,2.555,2.58484
-0.373747,-0.0983839,2.574,2.60285
-0.365392,-0.0983839,2.574,2.60167
-0.357037,-0.0983839,2.574,2.60051
-0.348683,-0.0983839,2.574,2.59937
-0.340328,-0.0983839,2.574,2.59826
-0.331974,-0.0983839,2.574,2.59718
-0.323619,-0.0983839,2.574,2.59613
-0.315265,-0.0983839,2.574,2.5951
-0.304645,-0.0976577,2.555,2.57495
-0.296352,-0.0976577,2.555,2.57398
-0.290201,-0.0983839,2.574,2.59218
-0.279766,-0.0976577,2.555,2.57213
-0.271473,-0.0976577,2.555,2.57124
-0.26318,-0.0976577,2.555,2.57037
-0.254887,-0.0976577,2.555,2.56954
-0.246594,-0.0976577,2.555,2.56873
-0.238301,-0.0976577,2.555,2.56795
-0.230009,-0.0976577,2.555,2.56719
-0.221716,-0.0976577,2.555,2.56646
-0.213423,-0.0976577,2.555,2.56576
-0.20513,-0.0976577,2.555,2.56508
-0.196837,-0.0976577,2.555,2.56443
-0.188544,-0.0976577,2.555,2.56381
-0.180251,-0.0976577,2.555,2.56321
-0.171958,-0.0976577,2.555,2.56264
-0.163665,-0.0976577,2.555,2.5621
-0.155372,-0.0976577,2.555,2.56158
-0.14708,-0.0976577,2.555,2.56109
-0.138787,-0.0976577,2.555,2.56063
-0.129523,-0.0969315,2.536,2.54115
-0.121292,-0.0969315,2.536,2.54075
-0.113061,-0.0969315,2.536,2.54037
-0.10483,-0.0969315,2.536,2.54002
-0.0973222,-0.0976577,2.555,2.55872
-0.0890293,-0.0976577,2.555,2.55842
-0.0807364,-0.0976577,2.555,2.55814
-0.0724435,-0.0976577,2.555,2.55789
-0.0641506,-0.0976577,2.555,2.55767
-0.0558577,-0.0976577,2.555,2.55748
-0.0479185,-0.0983839,2.574,2.57633
-0.039856,-0.0991101,2.593,2.5952
-0.0314398,-0.0991101,2.593,2.59508
-0.0232011,-0.0998746,2.613,2.61501
-0.01472,-0.0998746,2.613,2.61495
-0.00623883,-0.0998746,2.613,2.61492
0.00225949,-0.100639,2.633,2.63492
0.0108056,-0.100639,2.633,2.63494
0.0193516,-0.100639,2.633,2.63499
0.0278977,-0.100639,2.633,2.63507
0.0364437,-0.100639,2.633,2.63517
0.0449898,-0.100639,2.633,2.63531
0.0535359,-0.100639,2.633,2.63547
0.0620819,-0.100639,2.633,2.63565
0.070628,-0.100639,2.633,2.63587
0.0785727,-0.0998746,2.613,2.61609
0.0863875,-0.0991101,2.593,2.59633
0.0948037,-0.0991101,2.593,2.59662
0.10322,-0.0991101,2.593,2.59695
0.111636,-0.0991101,2.593,2.59729
0.120052,-0.0991101,2.593,2.59767
0.128469,-0.0991101,2.593,2.59807
0.136885,-0.0991101,2.593,2.5985
0.145301,-0.0991101,2.593,2.59896
0.153717,-0.0991101,2.593,2.59944
0.162134,-0.0991101,2.593,2.59995
0.17055,-0.0991101,2.593,2.60049
0.180346,-0.0998746,2.613,2.62112
0.187382,-0.0991101,2.593,2.60165
0.195799,-0.0991101,2.593,2.60227
0.204215,-0.0991101,2.593,2.60292
0.212631,-0.0991101,2.593,2.60359
0.222752,-0.0998746,2.613,2.62438
0.231233,-0.0998746,2.613,2.62511
0.239715,-0.0998746,2.613,2.62587
0.248196,-0.0998746,2.613,2.62666
0.254712,-0.0991101,2.593,2.60736
0.263128,-0.0991101,2.593,2.6082
0.271545,-0.0991101,2.593,2.60906
0.279961,-0.0991101,2.593,2.60995
0.288377,-0.0991101,2.593,2.61087
0.294619,-0.0983839,2.574,2.59267
0.302973,-0.0983839,2.574,2.59364
0.311328,-0.0983839,2.574,2.59463
0.319682,-0.0983839,2.574,2.59564
0.325615,-0.0976577,2.555,2.57752
0.331425,-0.0969315,2.536,2.5594
0.339657,-0.0969315,2.536,2.56048
0.347888,-0.0969315,2.536,2.56158
0.353451,-0.0962052,2.517,2.54352
0.36162,-0.0962052,2.517,2.54466
0.36979,-0.0962052,2.517,2.54584
0.37796,-0.0962052,2.517,2.54704
0.386129,-0.0962052,2.517,2.54826
0.391479,-0.0955173,2.499,2.53128
0.39959,-0.0955173,2.499,2.53255
nan,nan,nan,NaN
nan,nan,nan,NaN
0.423923,-0.0955173,2.499,2.5365
0.432035,-0.0955173,2.499,2.53787
0.440146,-0.0955173,2.499,2.53926
0.448257,-0.0955173,2.499,2.54068
0.456368,-0.0955173,2.499,2.54212
0.464479,-0.0955173,2.499,2.54359
0.47259,-0.0955173,2.499,2.54509
0.480701,-0.0955173,2.499,2.54661
0.488812,-0.0955173,2.499,2.54815
0.496924,-0.0955173,2.499,2.54972
0.508672,-0.0962052,2.517,2.56969
0.516842,-0.0962052,2.517,2.57132
0.525012,-0.0962052,2.517,2.57297
0.533181,-0.0962052,2.517,2.57465
0.545437,-0.0969315,2.536,2.5958
0.557817,-0.0976577,2.555,2.61701
0.566109,-0.0976577,2.555,2.61879
0.574402,-0.0976577,2.555,2.62059
0.587028,-0.0983839,2.574,2.64192
0.595383,-0.0983839,2.574,2.64379
0.603738,-0.0983839,2.574,2.64569
0.612092,-0.0983839,2.574,2.64761
0.620447,-0.0983839,2.574,2.64955
0.628801,-0.0983839,2.574,2.65152
0.641859,-0.0991101,2.593,2.6731
0.655291,-0.0998746,2.613,2.69577
0.663772,-0.0998746,2.613,2.69784
0.672253,-0.0998746,2.613,2.69994
0.680734,-0.0998746,2.613,2.70206
0.689215,-0.0998746,2.613,2.70421
0.697697,-0.0998746,2.613,2.70639
0.706178,-0.0998746,2.613,2.70858
0.709189,-0.0991101,2.593,2.69006
0.717605,-0.0991101,2.593,2.69229
0.726021,-0.0991101,2.593,2.69455
0.734438,-0.0991101,2.593,2.69683
0.742854,-0.0991101,2.593,2.69913
0.745765,-0.0983839,2.574,2.68166
0.75412,-0.0983839,2.574,2.684
0.756846,-0.0976577,2.555,2.66653
0.765139,-0.0976577,2.555,2.66889
0.773432,-0.0976577,2.555,2.67128
0.781725,-0.0976577,2.555,2.6737
0.790018,-0.0976577,2.555,2.67613
0.798311,-0.0976577,2.555,2.67859
0.806603,-0.0976577,2.555,2.68108
0.808836,-0.0969315,2.536,2.66363
0.817068,-0.0969315,2.536,2.66614
0.825299,-0.0969315,2.536,2.66867
0.83353,-0.0969315,2.536,2.67123
0.841761,-0.0969315,2.536,2.67381
0.849993,-0.0969315,2.536,2.67641
0.858224,-0.0969315,2.536,2.67904
0.859963,-0.0962052,2.517,2.66159
0.868133,-0.0962052,2.517,2.66424
0.876303,-0.0962052,2.517,2.66692
0.878147,-0.0955173,2.499,2.65052
0.886258,-0.0955173,2.499,2.65322
0.887927,-0.0948293,2.481,2.63681
0.89598,-0.0948293,2.481,2.63953
0.904033,-0.0948293,2.481,2.64228
0.912085,-0.0948293,2.481,2.64504
0.913462,-0.0941413,2.463,2.62862
0.921457,-0.0941413,2.463,2.63141
0.929451,-0.0941413,2.463,2.63422
0.930594,-0.0934533,2.445,2.61778
0.93853,-0.0934533,2.445,2.62061
0.946466,-0.0934533,2.445,2.62346
0.947766,-0.0928035,2.428,2.60808
0.955646,-0.0928035,2.428,2.61095
0.963527,-0.0928035,2.428,2.61384
0.971408,-0.0928035,2.428,2.61676
0.979289,-0.0928035,2.428,2.6197
0.987169,-0.0928035,2.428,2.62265
0.99505,-0.0928035,2.428,2.62563
1.01739,-0.0941413,2.463,2.66652
1.04037,-0.0955173,2.499,2.7086
1.04848,-0.0955173,2.499,2.71172
1.05659,-0.0955173,2.499,2.71487
1.08047,-0.0969315,2.536,2.75828
1.12175,-0.0998746,2.613,2.84536
1.13024,-0.0998746,2.613,2.84871
1.18404,-0.10385,2.717,2.96561
1.22183,-0.106372,2.783,3.04126
1.26183,-0.109048,2.853,3.12149
1.27109,-0.109048,2.853,3.12525
1.32433,-0.112794,2.951,3.23651
1.34566,-0.113787,2.977,3.26899
1.35532,-0.113787,2.977,3.27298
1.3769,-0.114781,3.003,3.30561
1.39912,-0.115813,3.03,3.33944
1.42151,-0.116845,3.057,3.37336
1.41879,-0.115813,3.03,3.34773
1.41589,-0.114781,3.003,3.32204
1.42564,-0.114781,3.003,3.3262
1.43538,-0.114781,3.003,3.33039
1.44513,-0.114781,3.003,3.3346
1.45488,-0.114781,3.003,3.33884
1.46463,-0.114781,3.003,3.3431
1.47437,-0.114781,3.003,3.34738
1.48412,-0.114781,3.003,3.35169
1.49387,-0.114781,3.003,3.35601
1.50361,-0.114781,3.003,3.36036
1.51336,-0.114781,3.003,3.36474
1.52311,-0.114781,3.003,3.36913
1.53285,-0.114781,3.003,3.37355
1.55647,-0.115813,3.03,3.40836
1.58026,-0.116845,3.057,3.44327
1.59019,-0.116845,3.057,3.44784
1.61424,-0.117877,3.084,3.48292
1.62425,-0.117877,3.084,3.48757
1.63426,-0.117877,3.084,3.49224
1.6592,-0.118947,3.112,3.52869
1.68485,-0.120056,3.141,3.56638
1.69505,-0.120056,3.141,3.5712
1.70524,-0.120056,3.141,3.57605
1.71544,-0.120056,3.141,3.58093
1.74157,-0.121164,3.17,3.61893
1.75186,-0.121164,3.17,3.62389
1.76214,-0.121164,3.17,3.62888
1.77243,-0.121164,3.17,3.63388
1.76641,-0.120056,3.141,3.60562
1.77661,-0.120056,3.141,3.61063
1.7868,-0.120056,3.141,3.61566
1.797,-0.120056,3.141,3.6207
1.79051,-0.118947,3.112,3.5923
1.80061,-0.118947,3.112,3.59734
1.79442,-0.117877,3.084,3.57
1.80443,-0.117877,3.084,3.57504
1.81444,-0.117877,3.084,3.5801
1.82445,-0.117877,3.084,3.58519
1.8184,-0.116845,3.057,3.55886
1.82832,-0.116845,3.057,3.56394
1.83824,-0.116845,3.057,3.56904
1.84816,-0.116845,3.057,3.57416
1.84168,-0.115813,3.03,3.54769
1.85151,-0.115813,3.03,3.5528
1.84476,-0.114781,3.003,3.52623
1.82239,-0.112794,2.951,3.47019
1.83197,-0.112794,2.951,3.47523
1.82595,-0.111838,2.926,3.45081
1.81976,-0.110883,2.901,3.42631
1.82918,-0.110883,2.901,3.43133
1.82338,-0.109965,2.877,3.40792
1.80215,-0.108131,2.829,3.35599
1.81133,-0.108131,2.829,3.36093
1.79091,-0.106372,2.783,3.31116
1.77148,-0.104691,2.739,3.26362
1.75242,-0.103047,2.696,3.21714
1.76117,-0.103047,2.696,3.22192
1.74235,-0.101442,2.654,3.17644
1.73711,-0.100639,2.633,3.15601
1.74566,-0.100639,2.633,3.16072
1.72755,-0.0991101,2.593,3.11736
1.72325,-0.0983839,2.574,3.09915
1.7316,-0.0983839,2.574,3.10381
1.71427,-0.0969315,2.536,3.06258
1.7096,-0.0962052,2.517,3.04422
-1.96257,-0.0989509,2.829,3.44452
-1.92163,-0.097342,2.783,3.38337
-1.91259,-0.097342,2.783,3.37825
-1.87346,-0.095803,2.739,3.31981
-1.8496,-0.0950335,2.717,3.28818
-1.84078,-0.0950335,2.717,3.28323
-1.8178,-0.0942989,2.696,3.25295
-1.79496,-0.0935644,2.675,3.22277
-1.78628,-0.0935644,2.675,3.21794
-1.77759,-0.0935644,2.675,3.21313
-1.75502,-0.0928299,2.654,3.18315
-1.74641,-0.0928299,2.654,3.17841
-1.7378,-0.0928299,2.654,3.17368
-1.72918,-0.0928299,2.654,3.16898
-1.73418,-0.0935644,2.675,3.18932
-1.7255,-0.0935644,2.675,3.18461
-1.71682,-0.0935644,2.675,3.17991
-1.73495,-0.0950335,2.717,3.22509
nan,nan,nan,NaN
nan,nan,nan,NaN
nan,nan,nan,NaN
-1.81478,-0.101469,2.901,3.42338
-1.80537,-0.101469,2.901,3.4184
-1.79595,-0.101469,2.901,3.41344
-1.80193,-0.102344,2.926,3.43786
-1.80775,-0.103218,2.951,3.46223
-1.79817,-0.103218,2.951,3.45724
-1.80435,-0.104128,2.977,3.48268
-1.81036,-0.105037,3.003,3.50806
-1.80062,-0.105037,3.003,3.50304
-1.80697,-0.105981,3.03,3.52949
-1.81315,-0.106926,3.057,3.55587
-1.80323,-0.106926,3.057,3.55082
-1.79331,-0.106926,3.057,3.54579
-1.78338,-0.106926,3.057,3.54078
-1.77346,-0.106926,3.057,3.5358
-1.76354,-0.106926,3.057,3.53083
nan,nan,nan,NaN
nan,nan,nan,NaN
nan,nan,nan,NaN
nan,nan,nan,NaN
nan,nan,nan,NaN
nan,nan,nan,NaN
nan,nan,nan,NaN
nan,nan,nan,NaN
nan,nan,nan,NaN
nan,nan,nan,NaN
nan,nan,nan,NaN
nan,nan,nan,NaN
nan,nan,nan,NaN
nan,nan,nan,NaN
nan,nan,nan,NaN
nan,nan,nan,NaN
nan,nan,nan,NaN
nan,nan,nan,NaN
nan,nan,nan,NaN
nan,nan,nan,NaN
nan,nan,nan,NaN
nan,nan,nan,NaN
nan,nan,nan,NaN
nan,nan,nan,NaN
nan,nan,nan,NaN
-1.23961,-0.088038,2.517,2.80708
-1.22264,-0.0874084,2.499,2.78343
-1.21453,-0.0874084,2.499,2.77988
-1.19772,-0.0867788,2.481,2.75635
-1.17241,-0.0855196,2.445,2.71291
-1.16447,-0.0855196,2.445,2.70949
-1.15654,-0.0855196,2.445,2.70609
-1.14062,-0.084925,2.428,2.68392
-1.1248,-0.0843304,2.411,2.66181
-1.11698,-0.0843304,2.411,2.65851
-1.10133,-0.0837358,2.394,2.63651
-1.0858,-0.0831412,2.377,2.61457
-1.07808,-0.0831412,2.377,2.61138
-1.07037,-0.0831412,2.377,2.6082
-1.0555,-0.0825815,2.361,2.58751
-1.04784,-0.0825815,2.361,2.5844
-1.04017,-0.0825815,2.361,2.5813
-1.03251,-0.0825815,2.361,2.57822
-1.02485,-0.0825815,2.361,2.57516
-1.01718,-0.0825815,2.361,2.57212
-1.00952,-0.0825815,2.361,2.5691
-1.00186,-0.0825815,2.361,2.5661
-0.994193,-0.0825815,2.361,2.56312
-0.986529,-0.0825815,2.361,2.56015
-0.978866,-0.0825815,2.361,2.55721
-0.977785,-0.0831412,2.377,2.5716
-0.970069,-0.0831412,2.377,2.56867
-0.962354,-0.0831412,2.377,2.56577
-0.954639,-0.0831412,2.377,2.56288
-0.946924,-0.0831412,2.377,2.56002
-0.939209,-0.0831412,2.377,2.55718
-0.931494,-0.0831412,2.377,2.55435
-0.923778,-0.0831412,2.377,2.55155
-0.916063,-0.0831412,2.377,2.54877
-0.908348,-0.0831412,2.377,2.546
-0.900633,-0.0831412,2.377,2.54326
-0.892918,-0.0831412,2.377,2.54054
-0.885203,-0.0831412,2.377,2.53784
-0.877488,-0.0831412,2.377,2.53516
-0.869772,-0.0831412,2.377,2.5325
-0.862057,-0.0831412,2.377,2.52986
-0.854342,-0.0831412,2.377,2.52724
-0.846627,-0.0831412,2.377,2.52464
-0.838912,-0.0831412,2.377,2.52207
-0.831197,-0.0831412,2.377,2.51951
-0.823481,-0.0831412,2.377,2.51698
-0.815766,-0.0831412,2.377,2.51446
-0.808051,-0.0831412,2.377,2.51197
-0.800336,-0.0831412,2.377,2.5095
-0.792621,-0.0831412,2.377,2.50705
-0.784906,-0.0831412,2.377,2.50462
-0.777191,-0.0831412,2.377,2.50221
-0.769475,-0.0831412,2.377,2.49983
-0.76176,-0.0831412,2.377,2.49746
-0.754045,-0.0831412,2.377,2.49512
-0.74633,-0.0831412,2.377,2.4928
-0.738615,-0.0831412,2.377,2.4905
-0.7309,-0.0831412,2.377,2.48822
-0.723184,-0.0831412,2.377,2.48597
-0.715469,-0.0831412,2.377,2.48373
-0.707754,-0.0831412,2.377,2.48152
-0.705046,-0.0837358,2.394,2.49707
-0.697275,-0.0837358,2.394,2.49488
-0.689505,-0.0837358,2.394,2.49272
-0.681735,-0.0837358,2.394,2.49058
-0.673964,-0.0837358,2.394,2.48847
-0.666194,-0.0837358,2.394,2.48638
-0.663099,-0.0843304,2.411,2.50195
-0.655274,-0.0843304,2.411,2.49988
-0.647448,-0.0843304,2.411,2.49784
-0.639623,-0.0843304,2.411,2.49583
-0.636252,-0.084925,2.428,2.51142
-0.628371,-0.084925,2.428,2.50943
-0.624835,-0.0855196,2.445,2.52503
-0.616899,-0.0855196,2.445,2.52307
-0.613446,-0.0861492,2.463,2.53971
-0.605452,-0.0861492,2.463,2.53779
-0.601824,-0.0867788,2.481,2.55442
-0.598079,-0.0874084,2.499,2.57106
-0.589968,-0.0874084,2.499,2.56918
-0.581857,-0.0874084,2.499,2.56733
-0.573746,-0.0874084,2.499,2.56551
-0.565635,-0.0874084,2.499,2.56371
-0.561539,-0.088038,2.517,2.58038
-0.55337,-0.088038,2.517,2.57862
-0.5452,-0.088038,2.517,2.57687
-0.537031,-0.088038,2.517,2.57516
-0.528861,-0.088038,2.517,2.57347
-0.520692,-0.088038,2.517,2.5718
-0.512522,-0.088038,2.517,2.57016
-0.50816,-0.0887026,2.536,2.58793
-0.499929,-0.0887026,2.536,2.58633
-0.491697,-0.0887026,2.536,2.58475
-0.483466,-0.0887026,2.536,2.5832
-0.475235,-0.0887026,2.536,2.58167
-0.467004,-0.0887026,2.536,2.58017
-0.458772,-0.0887026,2.536,2.57869
-0.453917,-0.0893671,2.555,2.59655
-0.445624,-0.0893671,2.555,2.59511
-0.434079,-0.0887026,2.536,2.57441
-0.425848,-0.0887026,2.536,2.57304
-0.420745,-0.0893671,2.555,2.59095
-0.412452,-0.0893671,2.555,2.58962
-0.404159,-0.0893671,2.555,2.58831
-0.395866,-0.0893671,2.555,2.58703
-0.387574,-0.0893671,2.555,2.58577
-0.379281,-0.0893671,2.555,2.58454
-0.370988,-0.0893671,2.555,2.58334
-0.362695,-0.0893671,2.555,2.58216
-0.354402,-0.0893671,2.555,2.58101
-0.348683,-0.0900317,2.574,2.59907
-0.340328,-0.0900317,2.574,2.59796
-0.331974,-0.0900317,2.574,2.59688
-0.32123,-0.0893671,2.555,2.57666
-0.312937,-0.0893671,2.555,2.57564
-0.304645,-0.0893671,2.555,2.57465
-0.296352,-0.0893671,2.555,2.57368
-0.288059,-0.0893671,2.555,2.57274
-0.279766,-0.0893671,2.555,2.57182
-0.271473,-0.0893671,2.555,2.57094
-0.26318,-0.0893671,2.555,2.57007
-0.254887,-0.0893671,2.555,2.56924
-0.246594,-0.0893671,2.555,2.56843
-0.238301,-0.0893671,2.555,2.56764
-0.230009,-0.0893671,2.555,2.56689
-0.221716,-0.0893671,2.555,2.56616
-0.213423,-0.0893671,2.555,2.56546
-0.20513,-0.0893671,2.555,2.56478
-0.196837,-0.0893671,2.555,2.56413
-0.188544,-0.0893671,2.555,2.56351
-0.180251,-0.0893671,2.555,2.56291
-0.171958,-0.0893671,2.555,2.56234
-0.163665,-0.0893671,2.555,2.5618
-0.155372,-0.0893671,2.555,2.56128
-0.14708,-0.0893671,2.555,2.56079
-0.138787,-0.0893671,2.555,2.56033
-0.129523,-0.0887026,2.536,2.54085
-0.121292,-0.0887026,2.536,2.54045
-0.113061,-0.0887026,2.536,2.54007
-0.10483,-0.0887026,2.536,2.53972
-0.0965985,-0.0887026,2.536,2.53939
-0.0883672,-0.0887026,2.536,2.53909
-0.0807364,-0.0893671,2.555,2.55784
-0.0724435,-0.0893671,2.555,2.55759
-0.0641506,-0.0893671,2.555,2.55737
-0.0558577,-0.0893671,2.555,2.55717
-0.0475648,-0.0893671,2.555,2.557
-0.039856,-0.0906963,2.593,2.59489
-0.0314398,-0.0906963,2.593,2.59478
-0.0230235,-0.0906963,2.593,2.59469
-0.01472,-0.0913958,2.613,2.61464
-0.00623883,-0.0913958,2.613,2.61461
0.00225949,-0.0920954,2.633,2.63461
0.0108056,-0.0920954,2.633,2.63463
0.0193516,-0.0920954,2.633,2.63468
0.0278977,-0.0920954,2.633,2.63476
0.0361669,-0.0913958,2.613,2.61485
0.0446481,-0.0913958,2.613,2.61498
0.0531292,-0.0913958,2.613,2.61514
0.0611388,-0.0906963,2.593,2.59531
0.069555,-0.0906963,2.593,2.59552
0.0779713,-0.0906963,2.593,2.59576
0.0863875,-0.0906963,2.593,2.59602
0.0948037,-0.0906963,2.593,2.59632
0.10322,-0.0906963,2.593,2.59664
0.110818,-0.0900317,2.574,2.57796
0.119173,-0.0900317,2.574,2.57833
0.128469,-0.0906963,2.593,2.59776
0.136885,-0.0906963,2.593,2.59819
0.145301,-0.0906963,2.593,2.59865
0.153717,-0.0906963,2.593,2.59914
0.162134,-0.0906963,2.593,2.59965
0.17055,-0.0906963,2.593,2.60019
0.178966,-0.0906963,2.593,2.60075
0.187382,-0.0906963,2.593,2.60134
0.195799,-0.0906963,2.593,2.60196
0.204215,-0.0906963,2.593,2.60261
0.214271,-0.0913958,2.613,2.62336
0.222752,-0.0913958,2.613,2.62407
0.231233,-0.0913958,2.613,2.6248
0.239715,-0.0913958,2.613,2.62556
0.246296,-0.0906963,2.593,2.60625
0.254712,-0.0906963,2.593,2.60706
0.263128,-0.0906963,2.593,2.60789
0.271545,-0.0906963,2.593,2.60876
0.279961,-0.0906963,2.593,2.60965
0.288377,-0.0906963,2.593,2.61056
0.294619,-0.0900317,2.574,2.59237
0.302973,-0.0900317,2.574,2.59333
0.311328,-0.0900317,2.574,2.59432
0.319682,-0.0900317,2.574,2.59534
0.325615,-0.0893671,2.555,2.57721
0.331425,-0.0887026,2.536,2.5591
0.339657,-0.0887026,2.536,2.56018
0.347888,-0.0887026,2.536,2.56129
0.356119,-0.0887026,2.536,2.56242
0.36435,-0.0887026,2.536,2.56357
0.36979,-0.088038,2.517,2.54554
0.37796,-0.088038,2.517,2.54674
0.386129,-0.088038,2.517,2.54797
0.394299,-0.088038,2.517,2.54922
0.402468,-0.088038,2.517,2.55049
nan,nan,nan,NaN
nan,nan,nan,NaN
0.423923,-0.0874084,2.499,2.53621
0.432035,-0.0874084,2.499,2.53758
nan,nan,nan,NaN
0.448257,-0.0874084,2.499,2.54039
0.456368,-0.0874084,2.499,2.54183
0.464479,-0.0874084,2.499,2.5433
0.47259,-0.0874084,2.499,2.5448
0.480701,-0.0874084,2.499,2.54631
0.488812,-0.0874084,2.499,2.54786
0.496924,-0.0874084,2.499,2.54943
0.508672,-0.088038,2.517,2.56939
0.516842,-0.088038,2.517,2.57102
0.528975,-0.0887026,2.536,2.5921
0.537206,-0.0887026,2.536,2.59379
0.545437,-0.0887026,2.536,2.59551
0.557817,-0.0893671,2.555,2.61671
0.566109,-0.0893671,2.555,2.61849
0.574402,-0.0893671,2.555,2.6203
0.587028,-0.0900317,2.574,2.64163
0.595383,-0.0900317,2.574,2.64349
0.603738,-0.0900317,2.574,2.64539
0.612092,-0.0900317,2.574,2.64731
0.620447,-0.0900317,2.574,2.64925
0.628801,-0.0900317,2.574,2.65122
0.641859,-0.0906963,2.593,2.6728
0.655291,-0.0913958,2.613,2.69546
0.663772,-0.0913958,2.613,2.69754
0.672253,-0.0913958,2.613,2.69964
0.685945,-0.0920954,2.633,2.72244
0.694491,-0.0920954,2.633,2.72461
0.703037,-0.0920954,2.633,2.7268
0.711583,-0.0920954,2.633,2.72901
0.714659,-0.0913958,2.613,2.71051
0.72314,-0.0913958,2.613,2.71276
0.731621,-0.0913958,2.613,2.71503
0.740102,-0.0913958,2.613,2.71733
0.742854,-0.0906963,2.593,2.69883
0.75127,-0.0906963,2.593,2.70116
0.759686,-0.0906963,2.593,2.70352
0.762474,-0.0900317,2.574,2.68607
0.765139,-0.0893671,2.555,2.6686
0.773432,-0.0893671,2.555,2.67099
0.781725,-0.0893671,2.555,2.67341
0.790018,-0.0893671,2.555,2.67584
0.798311,-0.0893671,2.555,2.6783
0.806603,-0.0893671,2.555,2.68079
0.814896,-0.0893671,2.555,2.68329
0.823189,-0.0893671,2.555,2.68582
0.831482,-0.0893671,2.555,2.68838
0.839775,-0.0893671,2.555,2.69095
0.848068,-0.0893671,2.555,2.69355
0.856361,-0.0893671,2.555,2.69618
0.858224,-0.0887026,2.536,2.67875
0.866455,-0.0887026,2.536,2.6814
0.874686,-0.0887026,2.536,2.68407
0.876303,-0.088038,2.517,2.66664
0.884472,-0.088038,2.517,2.66933
0.892642,-0.088038,2.517,2.67205
0.894369,-0.0874084,2.499,2.65566
0.90248,-0.0874084,2.499,2.6584
0.910591,-0.0874084,2.499,2.66117
0.912085,-0.0867788,2.481,2.64477
0.913462,-0.0861492,2.463,2.62835
