-0.483466,-0.0887026,2.536,2.5832
-0.475235,-0.0887026,2.536,2.58167
-0.467004,-0.0887026,2.536,2.58017
-0.46221,-0.0893671,2.555,2.59801
-0.453917,-0.0893671,2.555,2.59655
-0.445624,-0.0893671,2.555,2.59511
-0.437331,-0.0893671,2.555,2.5937
-0.429038,-0.0893671,2.555,2.59231
-0.420745,-0.0893671,2.555,2.59095
-0.412452,-0.0893671,2.555,2.58962
-0.404159,-0.0893671,2.555,2.58831
-0.395866,-0.0893671,2.555,2.58703
-0.387574,-0.0893671,2.555,2.58577
-0.379281,-0.0893671,2.555,2.58454
-0.370988,-0.0893671,2.555,2.58334
-0.362695,-0.0893671,2.555,2.58216
-0.354402,-0.0893671,2.555,2.58101
-0.343535,-0.0887026,2.536,2.5607
-0.335304,-0.0887026,2.536,2.55961
-0.327073,-0.0887026,2.536,2.55854
-0.318842,-0.0887026,2.536,2.5575
-0.31061,-0.0887026,2.536,2.55649
-0.302379,-0.0887026,2.536,2.5555
-0.294148,-0.0887026,2.536,2.55454
-0.285917,-0.0887026,2.536,2.55361
-0.277685,-0.0887026,2.536,2.5527
-0.269454,-0.0887026,2.536,2.55182
-0.26318,-0.0893671,2.555,2.57007
-0.254887,-0.0893671,2.555,2.56924
-0.246594,-0.0893671,2.555,2.56843
-0.238301,-0.0893671,2.555,2.56764
-0.230009,-0.0893671,2.555,2.56689
-0.221716,-0.0893671,2.555,2.56616
-0.213423,-0.0893671,2.555,2.56546
-0.20513,-0.0893671,2.555,2.56478
-0.196837,-0.0893671,2.555,2.56413
-0.188544,-0.0893671,2.555,2.56351
-0.180251,-0.0893671,2.555,2.56291
-0.171958,-0.0893671,2.555,2.56234
-0.163665,-0.0893671,2.555,2.5618
-0.155372,-0.0893671,2.555,2.56128
-0.14708,-0.0893671,2.555,2.56079
-0.138787,-0.0893671,2.555,2.56033
-0.130494,-0.0893671,2.555,2.55989
-0.12311,-0.0900317,2.574,2.57851
-0.114755,-0.0900317,2.574,2.57813
-0.1064,-0.0900317,2.574,2.57777
-0.0980459,-0.0900317,2.574,2.57744
-0.0896914,-0.0900317,2.574,2.57714
-0.0819372,-0.0906963,2.593,2.59588
-0.073521,-0.0906963,2.593,2.59563
-0.0656069,-0.0913958,2.613,2.61542
-0.0571257,-0.0913958,2.613,2.61522
-0.0486446,-0.0913958,2.613,2.61505
-0.0401634,-0.0913958,2.613,2.61491
-0.0316823,-0.0913958,2.613,2.61479
-0.0232011,-0.0913958,2.613,2.6147
-0.01472,-0.0913958,2.613,2.61464
-0.00619107,-0.0906963,2.593,2.59459
0.00222516,-0.0906963,2.593,2.59459
0.0106414,-0.0906963,2.593,2.59461
0.0190576,-0.0906963,2.593,2.59466
0.0274739,-0.0906963,2.593,2.59473
0.0356271,-0.0900317,2.574,2.57582
0.0439817,-0.0900317,2.574,2.57595
0.0523362,-0.0900317,2.574,2.57611
0.0602428,-0.0893671,2.555,2.55727
0.0685357,-0.0893671,2.555,2.55748
0.0768286,-0.0893671,2.555,2.55772
0.0844885,-0.0887026,2.536,2.53896
0.0927197,-0.0887026,2.536,2.53924
0.100951,-0.0887026,2.536,2.53956
0.109182,-0.0887026,2.536,2.5399
0.117413,-0.0887026,2.536,2.54027
0.125645,-0.0887026,2.536,2.54066
0.133876,-0.0887026,2.536,2.54108
0.143172,-0.0893671,2.555,2.56057
0.151465,-0.0893671,2.555,2.56105
0.159758,-0.0893671,2.555,2.56155
0.16805,-0.0893671,2.555,2.56208
0.177655,-0.0900317,2.574,2.58169
0.186009,-0.0900317,2.574,2.58228
0.195799,-0.0906963,2.593,2.60196
0.204215,-0.0906963,2.593,2.60261
0.212631,-0.0906963,2.593,2.60328
0.221047,-0.0906963,2.593,2.60399
0.229463,-0.0906963,2.593,2.60471
0.23788,-0.0906963,2.593,2.60547
0.246296,-0.0906963,2.593,2.60625
0.254712,-0.0906963,2.593,2.60706
0.263128,-0.0906963,2.593,2.60789
0.269555,-0.0900317,2.574,2.58964
0.27791,-0.0900317,2.574,2.59052
0.286264,-0.0900317,2.574,2.59143
0.292444,-0.0893671,2.555,2.57323
0.300737,-0.0893671,2.555,2.57419
0.30903,-0.0893671,2.555,2.57517
0.317323,-0.0893671,2.555,2.57618
0.323194,-0.0887026,2.536,2.55805
0.331425,-0.0887026,2.536,2.5591
0.339657,-0.0887026,2.536,2.56018
0.345281,-0.088038,2.517,2.5421
0.353451,-0.088038,2.517,2.54322
nan,nan,nan,NaN
0.367146,-0.0874084,2.499,2.52734
0.372554,-0.0867788,2.481,2.51032
0.380606,-0.0867788,2.481,2.51152
0.385839,-0.0861492,2.463,2.49453
0.393834,-0.0861492,2.463,2.49578
nan,nan,nan,NaN
nan,nan,nan,NaN
nan,nan,nan,NaN
nan,nan,nan,NaN
nan,nan,nan,NaN
0.441799,-0.0861492,2.463,2.50379
0.449794,-0.0861492,2.463,2.50522
nan,nan,nan,NaN
0.465782,-0.0861492,2.463,2.50814
0.473776,-0.0861492,2.463,2.50963
nan,nan,nan,NaN
nan,nan,nan,NaN
nan,nan,nan,NaN
0.516842,-0.088038,2.517,2.57102
0.525012,-0.088038,2.517,2.57268
0.533181,-0.088038,2.517,2.57436
0.549524,-0.0893671,2.555,2.61495
0.561965,-0.0900317,2.574,2.63617
0.570319,-0.0900317,2.574,2.63796
0.582945,-0.0906963,2.593,2.65927
0.591362,-0.0906963,2.593,2.66112
0.599778,-0.0906963,2.593,2.66301
0.608194,-0.0906963,2.593,2.66492
0.61661,-0.0906963,2.593,2.66685
0.629847,-0.0913958,2.613,2.68939
0.638328,-0.0913958,2.613,2.69139
0.64681,-0.0913958,2.613,2.69342
0.655291,-0.0913958,2.613,2.69546
0.663772,-0.0913958,2.613,2.69754
0.667108,-0.0906963,2.593,2.67898
0.675524,-0.0906963,2.593,2.68108
0.68394,-0.0906963,2.593,2.68322
0.692356,-0.0906963,2.593,2.68537
0.700773,-0.0906963,2.593,2.68756
0.703992,-0.0900317,2.574,2.67005
0.712347,-0.0900317,2.574,2.67227
0.720701,-0.0900317,2.574,2.67451
0.729056,-0.0900317,2.574,2.67677
0.731967,-0.0893671,2.555,2.65928
0.74026,-0.0893671,2.555,2.66158
0.748553,-0.0893671,2.555,2.6639
0.751218,-0.0887026,2.536,2.64641
0.759449,-0.0887026,2.536,2.64876
0.773432,-0.0893671,2.555,2.67099
0.781725,-0.0893671,2.555,2.67341
0.790018,-0.0893671,2.555,2.67584
0.798311,-0.0893671,2.555,2.6783
0.806603,-0.0893671,2.555,2.68079
0.820956,-0.0900317,2.574,2.70325
0.829311,-0.0900317,2.574,2.7058
0.837665,-0.0900317,2.574,2.70837
0.84602,-0.0900317,2.574,2.71097
0.854374,-0.0900317,2.574,2.71358
0.862729,-0.0900317,2.574,2.71623
0.864654,-0.0893671,2.555,2.69882
0.872947,-0.0893671,2.555,2.70149
0.881239,-0.0893671,2.555,2.70418
0.882918,-0.0887026,2.536,2.68677
0.884472,-0.088038,2.517,2.66933
0.892642,-0.088038,2.517,2.67205
0.894369,-0.0874084,2.499,2.65566
0.89598,-0.0867788,2.481,2.63926
0.904033,-0.0867788,2.481,2.642
0.912085,-0.0867788,2.481,2.64477
0.913462,-0.0861492,2.463,2.62835
0.914722,-0.0855196,2.445,2.61191
0.922658,-0.0855196,2.445,2.6147
0.930594,-0.0855196,2.445,2.61751
0.932004,-0.084925,2.428,2.60212
0.939885,-0.084925,2.428,2.60495
0.94113,-0.0843304,2.411,2.58955
0.948955,-0.0843304,2.411,2.5924
0.956781,-0.0843304,2.411,2.59528
0.964606,-0.0843304,2.411,2.59817
0.972432,-0.0843304,2.411,2.60109
0.980257,-0.0843304,2.411,2.60402
0.988083,-0.0843304,2.411,2.60698
1.00293,-0.084925,2.428,2.62836
1.01789,-0.0855196,2.445,2.6498
1.02582,-0.0855196,2.445,2.65286
1.03376,-0.0855196,2.445,2.65594
1.04937,-0.0861492,2.463,2.67861
1.0887,-0.0887026,2.536,2.76124
1.09693,-0.0887026,2.536,2.76449
1.12172,-0.0900317,2.574,2.80924
1.1652,-0.0928299,2.654,2.9
1.20168,-0.0950335,2.717,2.9724
1.21049,-0.0950335,2.717,2.97597
1.23906,-0.0965725,2.761,3.02782
1.27876,-0.0989509,2.829,3.10616
1.28794,-0.0989509,2.829,3.10996
1.31913,-0.10063,2.877,3.1666
1.35109,-0.102344,2.926,3.2245
1.36059,-0.102344,2.926,3.22849
1.3818,-0.103218,2.951,3.26012
1.39137,-0.103218,2.951,3.2642
1.41329,-0.104128,2.977,3.29709
1.41053,-0.103218,2.951,3.27241
1.42011,-0.103218,2.951,3.27655
1.44228,-0.104128,2.977,3.30962
1.45195,-0.104128,2.977,3.31384
1.46161,-0.104128,2.977,3.31808
1.47127,-0.104128,2.977,3.32235
1.48093,-0.104128,2.977,3.32664
1.50361,-0.105037,3.003,3.36004
1.51336,-0.105037,3.003,3.36442
1.52311,-0.105037,3.003,3.36881
1.53285,-0.105037,3.003,3.37323
1.57034,-0.106926,3.057,3.43841
1.58026,-0.106926,3.057,3.44295
1.59019,-0.106926,3.057,3.44752
1.61424,-0.10787,3.084,3.48259
1.639,-0.10885,3.112,3.51891
1.6491,-0.10885,3.112,3.52362
1.67466,-0.109864,3.141,3.56124
1.70041,-0.110878,3.17,3.59897
1.7107,-0.110878,3.17,3.60384
1.73673,-0.111893,3.199,3.64175
1.76405,-0.112977,3.23,3.68205
1.77453,-0.112977,3.23,3.68709
1.76788,-0.111893,3.199,3.65671
1.77827,-0.111893,3.199,3.66174
1.80598,-0.112977,3.23,3.70233
1.81647,-0.112977,3.23,3.70745
1.80941,-0.111893,3.199,3.67697
1.8198,-0.111893,3.199,3.68209
1.83018,-0.111893,3.199,3.68723
1.82388,-0.110878,3.17,3.65892
1.83417,-0.110878,3.17,3.66406
1.82758,-0.109864,3.141,3.63566
1.83778,-0.109864,3.141,3.64079
1.83091,-0.10885,3.112,3.61229
1.84101,-0.10885,3.112,3.61742
1.83446,-0.10787,3.084,3.58998
1.84447,-0.10787,3.084,3.5951
1.85448,-0.10787,3.084,3.60025
1.84816,-0.106926,3.057,3.57385
1.84168,-0.105981,3.03,3.54738
1.85151,-0.105981,3.03,3.5525
1.84476,-0.105037,3.003,3.52593
1.83845,-0.104128,2.977,3.50047
1.84811,-0.104128,2.977,3.50555
1.84155,-0.103218,2.951,3.47999
1.83545,-0.102344,2.926,3.45555
1.84494,-0.102344,2.926,3.4606
1.8386,-0.101469,2.901,3.43606
1.83272,-0.10063,2.877,3.41264
1.81133,-0.0989509,2.829,3.36065
1.82051,-0.0989509,2.829,3.3656
1.79994,-0.097342,2.783,3.31577
1.79467,-0.0965725,2.761,3.29443
1.80364,-0.0965725,2.761,3.29933
1.78371,-0.0950335,2.717,3.25158
1.76482,-0.0935644,2.675,3.20608
1.7735,-0.0935644,2.675,3.21087
1.76819,-0.0928299,2.654,3.19043
1.74936,-0.0913958,2.613,3.14585
1.75784,-0.0913958,2.613,3.15058
1.7528,-0.0906963,2.593,3.13116
1.73541,-0.0893671,2.555,3.08993
-1.90013,-0.0869154,2.739,3.33469
-1.87605,-0.0862172,2.717,3.30289
-1.86723,-0.0862172,2.717,3.29789
-1.84405,-0.0855509,2.696,3.26745
-1.82101,-0.0848845,2.675,3.23711
-1.81232,-0.0848845,2.675,3.23224
-1.78948,-0.0842181,2.654,3.20204
-1.78087,-0.0842181,2.654,3.19723
-1.77225,-0.0842181,2.654,3.19244
-1.76364,-0.0842181,2.654,3.18767
-1.75502,-0.0842181,2.654,3.18291
-1.76023,-0.0848845,2.675,3.20332
-1.75155,-0.0848845,2.675,3.19855
-1.75655,-0.0855509,2.696,3.21888
-1.76141,-0.0862172,2.717,3.23915
-1.76678,-0.0869154,2.739,3.26055
-1.75789,-0.0869154,2.739,3.25574
-1.7771,-0.0883116,2.783,3.30318
-1.79729,-0.0897713,2.829,3.35284
-1.78811,-0.0897713,2.829,3.34793
-1.79402,-0.0905329,2.853,3.37139
-1.79977,-0.0912945,2.877,3.3948
-1.80537,-0.092056,2.901,3.41813
-1.79595,-0.092056,2.901,3.41317
-1.81733,-0.0936427,2.951,3.46697
-1.82368,-0.0944677,2.977,3.49246
-1.81401,-0.0944677,2.977,3.48742
-1.82011,-0.0952927,3.003,3.51282
-1.82664,-0.0961495,3.03,3.53932
-1.81681,-0.0961495,3.03,3.53425
-1.80697,-0.0961495,3.03,3.52921
-1.79714,-0.0961495,3.03,3.52418
-1.80323,-0.0970063,3.057,3.55053
-1.79331,-0.0970063,3.057,3.54551
-1.78338,-0.0970063,3.057,3.5405
-1.77346,-0.0970063,3.057,3.53551
-1.76354,-0.0970063,3.057,3.53054
-1.75362,-0.0970063,3.057,3.5256
-1.74369,-0.0970063,3.057,3.52067
-1.73377,-0.0970063,3.057,3.51577
-1.70862,-0.0961495,3.03,3.47988
-1.69879,-0.0961495,3.03,3.47506
nan,nan,nan,NaN
nan,nan,nan,NaN
nan,nan,nan,NaN
nan,nan,nan,NaN
nan,nan,nan,NaN
nan,nan,nan,NaN
nan,nan,nan,NaN
nan,nan,nan,NaN
nan,nan,nan,NaN
nan,nan,nan,NaN
nan,nan,nan,NaN
nan,nan,nan,NaN
nan,nan,nan,NaN
nan,nan,nan,NaN
nan,nan,nan,NaN
nan,nan,nan,NaN
nan,nan,nan,NaN
nan,nan,nan,NaN
nan,nan,nan,NaN
nan,nan,nan,NaN
nan,nan,nan,NaN
-1.25003,-0.0810766,2.555,2.84556
-1.24174,-0.0810766,2.555,2.84192
-1.2151,-0.0798707,2.517,2.79609
-1.18967,-0.0787284,2.481,2.75261
-1.18162,-0.0787284,2.481,2.74914
-1.16505,-0.0781572,2.463,2.72577
-1.14062,-0.0770466,2.428,2.68368
-1.1248,-0.0765071,2.411,2.66157
-1.11698,-0.0765071,2.411,2.65827
-1.10915,-0.0765071,2.411,2.65499
-1.09356,-0.0759676,2.394,2.63304
-1.08579,-0.0759676,2.394,2.62982
-1.07037,-0.0754282,2.377,2.60797
-1.0555,-0.0749205,2.361,2.58728
-1.04784,-0.0749205,2.361,2.58416
-1.04017,-0.0749205,2.361,2.58106
-1.03251,-0.0749205,2.361,2.57799
-1.02485,-0.0749205,2.361,2.57493
-1.01718,-0.0749205,2.361,2.57189
-1.00952,-0.0749205,2.361,2.56886
-0.995066,-0.0744128,2.345,2.54847
-0.987455,-0.0744128,2.345,2.54551
-0.979844,-0.0744128,2.345,2.54257
-0.972232,-0.0744128,2.345,2.53965
-0.964621,-0.0744128,2.345,2.53674
-0.95701,-0.0744128,2.345,2.53386
-0.949399,-0.0744128,2.345,2.53099
-0.941787,-0.0744128,2.345,2.52815
-0.934176,-0.0744128,2.345,2.52532
-0.926565,-0.0744128,2.345,2.52252
-0.918953,-0.0744128,2.345,2.51973
-0.911342,-0.0744128,2.345,2.51696
-0.909897,-0.0749205,2.361,2.53137
-0.902234,-0.0749205,2.361,2.52863
-0.894571,-0.0749205,2.361,2.5259
-0.886907,-0.0749205,2.361,2.5232
-0.885203,-0.0754282,2.377,2.5376
-0.877488,-0.0754282,2.377,2.53492
-0.869772,-0.0754282,2.377,2.53226
-0.862057,-0.0754282,2.377,2.52962
-0.854342,-0.0754282,2.377,2.527
-0.846627,-0.0754282,2.377,2.5244
-0.838912,-0.0754282,2.377,2.52182
-0.831197,-0.0754282,2.377,2.51927
-0.823481,-0.0754282,2.377,2.51673
-0.815766,-0.0754282,2.377,2.51422
-0.808051,-0.0754282,2.377,2.51173
-0.800336,-0.0754282,2.377,2.50925
-0.792621,-0.0754282,2.377,2.5068
-0.784906,-0.0754282,2.377,2.50438
-0.782749,-0.0759676,2.394,2.51986
-0.774979,-0.0759676,2.394,2.51746
-0.76176,-0.0754282,2.377,2.49722
-0.754045,-0.0754282,2.377,2.49488
-0.751668,-0.0759676,2.394,2.51038
-0.743897,-0.0759676,2.394,2.50806
-0.736127,-0.0759676,2.394,2.50577
-0.728357,-0.0759676,2.394,2.5035
-0.720586,-0.0759676,2.394,2.50125
-0.717878,-0.0765071,2.411,2.51677
-0.710052,-0.0765071,2.411,2.51455
-0.702227,-0.0765071,2.411,2.51235
-0.694401,-0.0765071,2.411,2.51017
-0.691417,-0.0770466,2.428,2.5257
-0.683536,-0.0770466,2.428,2.52356
-0.675655,-0.0770466,2.428,2.52143
-0.67245,-0.077586,2.445,2.53697
-0.664514,-0.077586,2.445,2.53488
-0.656578,-0.077586,2.445,2.53281
-0.648643,-0.077586,2.445,2.53077
-0.645424,-0.0781572,2.463,2.54736
-0.637429,-0.0781572,2.463,2.54535
-0.629435,-0.0781572,2.463,2.54336
-0.621441,-0.0781572,2.463,2.54139
-0.613446,-0.0781572,2.463,2.53945
-0.605452,-0.0781572,2.463,2.53753
-0.601824,-0.0787284,2.481,2.55416
-0.593771,-0.0787284,2.481,2.55228
-0.585719,-0.0787284,2.481,2.55042
-0.581857,-0.0792996,2.499,2.56707
-0.573746,-0.0792996,2.499,2.56524
-0.565635,-0.0792996,2.499,2.56344
-0.557524,-0.0792996,2.499,2.56166
-0.55337,-0.0798707,2.517,2.57835
-0.5452,-0.0798707,2.517,2.57661
-0.537031,-0.0798707,2.517,2.57489
-0.528861,-0.0798707,2.517,2.5732
-0.520692,-0.0798707,2.517,2.57153
-0.512522,-0.0798707,2.517,2.56989
-0.50816,-0.0804737,2.536,2.58766
-0.499929,-0.0804737,2.536,2.58606
-0.491697,-0.0804737,2.536,2.58448
-0.483466,-0.0804737,2.536,2.58293
-0.475235,-0.0804737,2.536,2.5814
-0.467004,-0.0804737,2.536,2.5799
-0.46221,-0.0810766,2.555,2.59774
-0.453917,-0.0810766,2.555,2.59627
-0.445624,-0.0810766,2.555,2.59484
-0.437331,-0.0810766,2.555,2.59343
-0.429038,-0.0810766,2.555,2.59204
-0.420745,-0.0810766,2.555,2.59068
-0.412452,-0.0810766,2.555,2.58935
-0.404159,-0.0810766,2.555,2.58804
-0.395866,-0.0810766,2.555,2.58676
-0.384691,-0.0804737,2.536,2.56627
-0.37646,-0.0804737,2.536,2.56505
-0.368229,-0.0804737,2.536,2.56386
-0.359998,-0.0804737,2.536,2.56269
-0.351766,-0.0804737,2.536,2.56154
-0.343535,-0.0804737,2.536,2.56043
-0.335304,-0.0804737,2.536,2.55934
-0.327073,-0.0804737,2.536,2.55827
-0.318842,-0.0804737,2.536,2.55723
-0.31061,-0.0804737,2.536,2.55622
-0.302379,-0.0804737,2.536,2.55523
-0.294148,-0.0804737,2.536,2.55427
-0.285917,-0.0804737,2.536,2.55334
-0.277685,-0.0804737,2.536,2.55243
-0.269454,-0.0804737,2.536,2.55154
-0.261223,-0.0804737,2.536,2.55069
-0.254887,-0.0810766,2.555,2.56896
-0.246594,-0.0810766,2.555,2.56815
-0.238301,-0.0810766,2.555,2.56737
-0.230009,-0.0810766,2.555,2.56661
-0.221716,-0.0810766,2.555,2.56588
-0.213423,-0.0810766,2.555,2.56518
-0.20513,-0.0810766,2.555,2.5645
-0.196837,-0.0810766,2.555,2.56385
-0.188544,-0.0810766,2.555,2.56323
-0.180251,-0.0810766,2.555,2.56263
-0.171958,-0.0810766,2.555,2.56206
-0.163665,-0.0810766,2.555,2.56152
-0.155372,-0.0810766,2.555,2.561
-0.14708,-0.0810766,2.555,2.56051
-0.138787,-0.0810766,2.555,2.56005
-0.130494,-0.0810766,2.555,2.55961
-0.12311,-0.0816795,2.574,2.57824
-0.114755,-0.0816795,2.574,2.57785
-0.1064,-0.0816795,2.574,2.57749
-0.0980459,-0.0816795,2.574,2.57716
-0.0896914,-0.0816795,2.574,2.57686
-0.0813368,-0.0816795,2.574,2.57658
-0.073521,-0.0822824,2.593,2.59535
-0.0651047,-0.0822824,2.593,2.59512
-0.0566885,-0.0822824,2.593,2.59492
-0.0486446,-0.0829171,2.613,2.61477
-0.0401634,-0.0829171,2.613,2.61462
-0.0316823,-0.0829171,2.613,2.61451
-0.0232011,-0.0829171,2.613,2.61442
-0.01472,-0.0829171,2.613,2.61436
-0.00623883,-0.0829171,2.613,2.61432
0.00224232,-0.0829171,2.613,2.61432
0.0106414,-0.0822824,2.593,2.59433
0.0190576,-0.0822824,2.593,2.59438
0.0274739,-0.0822824,2.593,2.59445
0.0358901,-0.0822824,2.593,2.59455
0.0443063,-0.0822824,2.593,2.59468
0.0523362,-0.0816795,2.574,2.57583
0.0602428,-0.0810766,2.555,2.557
0.0685357,-0.0810766,2.555,2.5572
0.0768286,-0.0810766,2.555,2.55744
0.0851215,-0.0810766,2.555,2.5577
0.0934144,-0.0810766,2.555,2.55799
0.100951,-0.0804737,2.536,2.53928
0.109182,-0.0804737,2.536,2.53962
0.117413,-0.0804737,2.536,2.53999
0.125645,-0.0804737,2.536,2.54039
0.133876,-0.0804737,2.536,2.54081
0.143172,-0.0810766,2.555,2.56029
0.151465,-0.0810766,2.555,2.56077
0.159758,-0.0810766,2.555,2.56127
0.16805,-0.0810766,2.555,2.5618
0.177655,-0.0816795,2.574,2.58142
0.186009,-0.0816795,2.574,2.582
0.195799,-0.0822824,2.593,2.60168
0.204215,-0.0822824,2.593,2.60233
0.212631,-0.0822824,2.593,2.603
0.221047,-0.0822824,2.593,2.60371
0.229463,-0.0822824,2.593,2.60443
0.23788,-0.0822824,2.593,2.60519
0.246296,-0.0822824,2.593,2.60597
0.254712,-0.0822824,2.593,2.60678
0.263128,-0.0822824,2.593,2.60762
0.269555,-0.0816795,2.574,2.58936
0.27791,-0.0816795,2.574,2.59025
0.286264,-0.0816795,2.574,2.59116
0.292444,-0.0810766,2.555,2.57296
0.300737,-0.0810766,2.555,2.57392
0.30903,-0.0810766,2.555,2.5749
0.317323,-0.0810766,2.555,2.57591
0.323194,-0.0804737,2.536,2.55778
0.331425,-0.0804737,2.536,2.55883
0.339657,-0.0804737,2.536,2.55991
0.345281,-0.0798707,2.517,2.54183
0.353451,-0.0798707,2.517,2.54295
nan,nan,nan,NaN
nan,nan,nan,NaN
0.375257,-0.0792996,2.499,2.52826
0.383368,-0.0792996,2.499,2.52948
0.388659,-0.0787284,2.481,2.51249
0.396712,-0.0787284,2.481,2.51375
nan,nan,nan,NaN
nan,nan,nan,NaN
nan,nan,nan,NaN
nan,nan,nan,NaN
nan,nan,nan,NaN
nan,nan,nan,NaN
nan,nan,nan,NaN
nan,nan,nan,NaN
nan,nan,nan,NaN
nan,nan,nan,NaN
nan,nan,nan,NaN
nan,nan,nan,NaN
nan,nan,nan,NaN
0.516842,-0.0798707,2.517,2.57076
0.525012,-0.0798707,2.517,2.57241
0.533181,-0.0798707,2.517,2.57409
0.545437,-0.0804737,2.536,2.59524
0.561965,-0.0816795,2.574,2.6359
0.570319,-0.0816795,2.574,2.63769
0.578674,-0.0816795,2.574,2.63951
0.587028,-0.0816795,2.574,2.64135
0.595383,-0.0816795,2.574,2.64322
0.608194,-0.0822824,2.593,2.66464
0.61661,-0.0822824,2.593,2.66658
0.625027,-0.0822824,2.593,2.66853
0.633443,-0.0822824,2.593,2.67052
0.64681,-0.0829171,2.613,2.69314
0.655291,-0.0829171,2.613,2.69519
0.663772,-0.0829171,2.613,2.69726
0.667108,-0.0822824,2.593,2.6787
0.675524,-0.0822824,2.593,2.68081
0.68394,-0.0822824,2.593,2.68295
0.687283,-0.0816795,2.574,2.66543
0.695638,-0.0816795,2.574,2.66759
0.703992,-0.0816795,2.574,2.66979
0.712347,-0.0816795,2.574,2.672
0.720701,-0.0816795,2.574,2.67424
0.729056,-0.0816795,2.574,2.6765
0.731967,-0.0810766,2.555,2.65902
0.74026,-0.0810766,2.555,2.66131
0.748553,-0.0810766,2.555,2.66363
0.751218,-0.0804737,2.536,2.64615
0.759449,-0.0804737,2.536,2.6485
0.773432,-0.0810766,2.555,2.67073
0.781725,-0.0810766,2.555,2.67314
0.790018,-0.0810766,2.555,2.67558
0.798311,-0.0810766,2.555,2.67804
0.806603,-0.0810766,2.555,2.68052
0.820956,-0.0816795,2.574,2.70298
0.829311,-0.0816795,2.574,2.70553
0.837665,-0.0816795,2.574,2.7081
0.84602,-0.0816795,2.574,2.7107
0.854374,-0.0816795,2.574,2.71332
0.862729,-0.0816795,2.574,2.71596
0.864654,-0.0810766,2.555,2.69856
0.872947,-0.0810766,2.555,2.70123
0.881239,-0.0810766,2.555,2.70392
0.882918,-0.0804737,2.536,2.68651
0.884472,-0.0798707,2.517,2.66907
0.892642,-0.0798707,2.517,2.67179
0.894369,-0.0792996,2.499,2.65541
0.89598,-0.0787284,2.481,2.639
0.904033,-0.0787284,2.481,2.64175
0.912085,-0.0787284,2.481,2.64452
0.913462,-0.0781572,2.463,2.6281
0.914722,-0.077586,2.445,2.61166
0.922658,-0.077586,2.445,2.61445
0.930594,-0.077586,2.445,2.61726
0.932004,-0.0770466,2.428,2.60188
0.939885,-0.0770466,2.428,2.60471
0.947766,-0.0770466,2.428,2.60756
0.948955,-0.0765071,2.411,2.59216
0.956781,-0.0765071,2.411,2.59503
0.964606,-0.0765071,2.411,2.59793
0.972432,-0.0765071,2.411,2.60085
0.980257,-0.0765071,2.411,2.60378
0.988083,-0.0765071,2.411,2.60674
1.00293,-0.0770466,2.428,2.62812
1.01789,-0.077586,2.445,2.64956
1.02582,-0.077586,2.445,2.65261
1.03376,-0.077586,2.445,2.65569
1.05703,-0.0787284,2.481,2.69794
1.0887,-0.0804737,2.536,2.76098
1.09693,-0.0804737,2.536,2.76424
1.12172,-0.0816795,2.574,2.80899
1.1652,-0.0842181,2.654,2.89974
1.20168,-0.0862172,2.717,2.97213
1.21049,-0.0862172,2.717,2.97571
1.23906,-0.0876135,2.761,3.02755
1.27876,-0.0897713,2.829,3.10589
1.28794,-0.0897713,2.829,3.10968
1.31913,-0.0912945,2.877,3.16632
1.35109,-0.0928493,2.926,3.22421
1.36059,-0.0928493,2.926,3.2282
1.3818,-0.0936427,2.951,3.25984
1.39137,-0.0936427,2.951,3.26391
1.40095,-0.0936427,2.951,3.268
1.41053,-0.0936427,2.951,3.27212
1.42011,-0.0936427,2.951,3.27626
1.42969,-0.0936427,2.951,3.28042
1.43926,-0.0936427,2.951,3.28461
1.46161,-0.0944677,2.977,3.31779
1.47127,-0.0944677,2.977,3.32206
1.48093,-0.0944677,2.977,3.32635
1.4906,-0.0944677,2.977,3.33067
1.50026,-0.0944677,2.977,3.335
1.52311,-0.0952927,3.003,3.36852
1.53285,-0.0952927,3.003,3.37294
1.55647,-0.0961495,3.03,3.40775
1.58026,-0.0970063,3.057,3.44266
1.59019,-0.0970063,3.057,3.44722
1.60011,-0.0970063,3.057,3.45181
1.62425,-0.0978631,3.084,3.48695
1.63426,-0.0978631,3.084,3.49162
1.67466,-0.0996718,3.141,3.56094
1.68485,-0.0996718,3.141,3.56575
1.69505,-0.0996718,3.141,3.57058
1.72099,-0.100592,3.17,3.60844
1.74712,-0.101512,3.199,3.64641
1.7575,-0.101512,3.199,3.6514
1.75186,-0.100592,3.17,3.62326
1.76214,-0.100592,3.17,3.62825
1.78865,-0.101512,3.199,3.66649
1.78272,-0.100592,3.17,3.63829
1.79301,-0.100592,3.17,3.64334
1.8033,-0.100592,3.17,3.64841
1.797,-0.0996718,3.141,3.62009
1.79051,-0.0987516,3.112,3.59169
1.80061,-0.0987516,3.112,3.59673
1.81071,-0.0987516,3.112,3.6018
1.82081,-0.0987516,3.112,3.60689
1.81444,-0.0978631,3.084,3.5795
1.82445,-0.0978631,3.084,3.58458
1.8184,-0.0970063,3.057,3.55826
1.82832,-0.0970063,3.057,3.56334
1.83824,-0.0970063,3.057,3.56844
1.83184,-0.0961495,3.03,3.542
1.82526,-0.0952927,3.003,3.51549
1.83501,-0.0952927,3.003,3.52056
1.82879,-0.0944677,2.977,3.49513
1.82239,-0.0936427,2.951,3.46962
1.83197,-0.0936427,2.951,3.47466
1.84155,-0.0936427,2.951,3.47972
1.81976,-0.092056,2.901,3.42576
1.82918,-0.092056,2.901,3.43077
1.8386,-0.092056,2.901,3.4358
1.83272,-0.0912945,2.877,3.41238
1.81133,-0.0897713,2.829,3.36039
1.82051,-0.0897713,2.829,3.36535
1.79994,-0.0883116,2.783,3.31552
1.79467,-0.0876135,2.761,3.29418
1.80364,-0.0876135,2.761,3.29908
1.78371,-0.0862172,2.717,3.25133
1.76482,-0.0848845,2.675,3.20584
1.7735,-0.0848845,2.675,3.21063
1.76819,-0.0842181,2.654,3.19019
1.74936,-0.0829171,2.613,3.14562
1.75784,-0.0829171,2.613,3.15034
1.7528,-0.0822824,2.593,3.13093
1.73541,-0.0810766,2.555,3.0897
-1.90013,-0.0780278,2.739,3.33447
-1.87605,-0.077401,2.717,3.30267
-1.86723,-0.077401,2.717,3.29767
-1.84405,-0.0768028,2.696,3.26724
-1.82101,-0.0762045,2.675,3.2369
-1.81232,-0.0762045,2.675,3.23202
-1.78948,-0.0756063,2.654,3.20182
-1.78087,-0.0756063,2.654,3.19702
-1.77225,-0.0756063,2.654,3.19223
-1.76364,-0.0756063,2.654,3.18745
-1.75502,-0.0756063,2.654,3.18269
-1.76023,-0.0762045,2.675,3.2031
-1.75155,-0.0762045,2.675,3.19834
-1.75655,-0.0768028,2.696,3.21866
-1.76141,-0.077401,2.717,3.23893
-1.76678,-0.0780278,2.739,3.26033
-1.75789,-0.0780278,2.739,3.25552
-1.7771,-0.0792812,2.783,3.30295
-1.79729,-0.0805916,2.829,3.35261
-1.78811,-0.0805916,2.829,3.3477
-1.79402,-0.0812754,2.853,3.37116
-1.79977,-0.0819591,2.877,3.39456
-1.80537,-0.0826428,2.901,3.41789
-1.79595,-0.0826428,2.901,3.41293
-1.81733,-0.0840671,2.951,3.46672
-1.82368,-0.0848078,2.977,3.49221
-1.81401,-0.0848078,2.977,3.48717
-1.82011,-0.0855485,3.003,3.51257
-1.82664,-0.0863177,3.03,3.53906
-1.81681,-0.0863177,3.03,3.534
-1.80697,-0.0863177,3.03,3.52895
-1.79714,-0.0863177,3.03,3.52393
-1.80323,-0.0870868,3.057,3.55028
-1.79331,-0.0870868,3.057,3.54525
-1.78338,-0.0870868,3.057,3.54024
-1.77346,-0.0870868,3.057,3.53525
-1.76354,-0.0870868,3.057,3.53028
-1.75362,-0.0870868,3.057,3.52534
-1.74369,-0.0870868,3.057,3.52041
-1.73377,-0.0870868,3.057,3.51551
-1.70862,-0.0863177,3.03,3.47962
-1.68365,-0.0855485,3.003,3.44384
-1.67391,-0.0855485,3.003,3.43908
-1.63534,-0.0840671,2.951,3.37488
-1.59822,-0.0826428,2.901,3.31315
-1.5888,-0.0826428,2.901,3.30861
-1.56632,-0.0819591,2.877,3.27677
-1.55698,-0.0819591,2.877,3.27231
-1.54764,-0.0819591,2.877,3.26788
-1.53831,-0.0819591,2.877,3.26347
-1.52897,-0.0819591,2.877,3.25908
nan,nan,nan,NaN
nan,nan,nan,NaN
nan,nan,nan,NaN
nan,nan,nan,NaN
nan,nan,nan,NaN
nan,nan,nan,NaN
nan,nan,nan,NaN
nan,nan,nan,NaN
nan,nan,nan,NaN
nan,nan,nan,NaN
nan,nan,nan,NaN
-1.28689,-0.0744383,2.613,2.91366
-1.25003,-0.072786,2.555,2.84533
-1.24174,-0.072786,2.555,2.8417
-1.2151,-0.0717035,2.517,2.79587
-1.18967,-0.0706779,2.481,2.75239
-1.18162,-0.0706779,2.481,2.74892
-1.16505,-0.0701652,2.463,2.72555
-1.14062,-0.0691681,2.428,2.68346
-1.1248,-0.0686838,2.411,2.66136
-1.11698,-0.0686838,2.411,2.65806
-1.10915,-0.0686838,2.411,2.65478
-1.09356,-0.0681995,2.394,2.63282
-1.08579,-0.0681995,2.394,2.62961
-1.07037,-0.0677152,2.377,2.60776
-1.0555,-0.0672594,2.361,2.58707
-1.04784,-0.0672594,2.361,2.58395
-1.04017,-0.0672594,2.361,2.58085
-1.03251,-0.0672594,2.361,2.57777
-1.02485,-0.0672594,2.361,2.57471
-1.01718,-0.0672594,2.361,2.57167
-1.00952,-0.0672594,2.361,2.56865
-0.995066,-0.0668036,2.345,2.54826
-0.987455,-0.0668036,2.345,2.5453
-0.979844,-0.0668036,2.345,2.54236
-0.972232,-0.0668036,2.345,2.53943
-0.964621,-0.0668036,2.345,2.53653
-0.95701,-0.0668036,2.345,2.53364
-0.949399,-0.0668036,2.345,2.53078
-0.941787,-0.0668036,2.345,2.52793
-0.934176,-0.0668036,2.345,2.52511
-0.932887,-0.0672594,2.361,2.53951
-0.925224,-0.0672594,2.361,2.53671
-0.91756,-0.0672594,2.361,2.53392
-0.909897,-0.0672594,2.361,2.53116
-0.902234,-0.0672594,2.361,2.52841
-0.900633,-0.0677152,2.377,2.5428
-0.892918,-0.0677152,2.377,2.54008
-0.885203,-0.0677152,2.377,2.53738
-0.877488,-0.0677152,2.377,2.5347
-0.869772,-0.0677152,2.377,2.53204
-0.862057,-0.0677152,2.377,2.5294
-0.860452,-0.0681995,2.394,2.54485
-0.852682,-0.0681995,2.394,2.54223
-0.838912,-0.0677152,2.377,2.5216
-0.831197,-0.0677152,2.377,2.51905
-0.823481,-0.0677152,2.377,2.51651
-0.815766,-0.0677152,2.377,2.514
-0.808051,-0.0677152,2.377,2.51151
-0.80606,-0.0681995,2.394,2.52698
-0.79829,-0.0681995,2.394,2.52451
-0.790519,-0.0681995,2.394,2.52206
-0.782749,-0.0681995,2.394,2.51964
-0.774979,-0.0681995,2.394,2.51724
-0.767208,-0.0681995,2.394,2.51486
-0.759438,-0.0681995,2.394,2.5125
-0.751668,-0.0681995,2.394,2.51016
-0.743897,-0.0681995,2.394,2.50784
-0.736127,-0.0681995,2.394,2.50555
-0.728357,-0.0681995,2.394,2.50328
-0.720586,-0.0681995,2.394,2.50103
-0.717878,-0.0686838,2.411,2.51654
-0.710052,-0.0686838,2.411,2.51432
-0.702227,-0.0686838,2.411,2.51212
-0.694401,-0.0686838,2.411,2.50995
-0.691417,-0.0691681,2.428,2.52548
-0.683536,-0.0691681,2.428,2.52333
-0.675655,-0.0691681,2.428,2.52121
-0.67245,-0.0696524,2.445,2.53674
-0.664514,-0.0696524,2.445,2.53465
-0.656578,-0.0696524,2.445,2.53258
-0.648643,-0.0696524,2.445,2.53054
-0.645424,-0.0701652,2.463,2.54713
-0.637429,-0.0701652,2.463,2.54511
-0.629435,-0.0701652,2.463,2.54312
-0.621441,-0.0701652,2.463,2.54116
-0.613446,-0.0701652,2.463,2.53921
-0.605452,-0.0701652,2.463,2.53729
-0.601824,-0.0706779,2.481,2.55393
-0.593771,-0.0706779,2.481,2.55204
-0.585719,-0.0706779,2.481,2.55018
-0.577666,-0.0706779,2.481,2.54834
-0.569613,-0.0706779,2.481,2.54653
-0.561561,-0.0706779,2.481,2.54474
-0.557524,-0.0711907,2.499,2.56143
-0.549413,-0.0711907,2.499,2.55967
-0.541301,-0.0711907,2.499,2.55794
-0.53319,-0.0711907,2.499,2.55624
-0.528861,-0.0717035,2.517,2.57296
-0.520692,-0.0717035,2.517,2.57129
-0.512522,-0.0717035,2.517,2.56965
-0.504353,-0.0717035,2.517,2.56803
-0.499929,-0.0722448,2.536,2.58582
-0.491697,-0.0722448,2.536,2.58424
-0.483466,-0.0722448,2.536,2.58268
-0.475235,-0.0722448,2.536,2.58116
-0.467004,-0.0722448,2.536,2.57965
-0.458772,-0.0722448,2.536,2.57818
-0.450541,-0.0722448,2.536,2.57672
-0.445624,-0.072786,2.555,2.59459
-0.437331,-0.072786,2.555,2.59318
-0.429038,-0.072786,2.555,2.59179
-0.420745,-0.072786,2.555,2.59043
-0.412452,-0.072786,2.555,2.5891
-0.404159,-0.072786,2.555,2.58779
-0.395866,-0.072786,2.555,2.58651
-0.384691,-0.0722448,2.536,2.56603
-0.37646,-0.0722448,2.536,2.56481
-0.368229,-0.0722448,2.536,2.56361
-0.359998,-0.0722448,2.536,2.56244
-0.351766,-0.0722448,2.536,2.5613
-0.343535,-0.0722448,2.536,2.56018
-0.335304,-0.0722448,2.536,2.55909
-0.327073,-0.0722448,2.536,2.55802
-0.318842,-0.0722448,2.536,2.55699
-0.31061,-0.0722448,2.536,2.55597
-0.302379,-0.0722448,2.536,2.55499
-0.294148,-0.0722448,2.536,2.55402
-0.285917,-0.0722448,2.536,2.55309
-0.277685,-0.0722448,2.536,2.55218
-0.269454,-0.0722448,2.536,2.5513
-0.261223,-0.0722448,2.536,2.55044
-0.254887,-0.072786,2.555,2.56871
-0.246594,-0.072786,2.555,2.5679
-0.238301,-0.072786,2.555,2.56712
-0.230009,-0.072786,2.555,2.56636
-0.221716,-0.072786,2.555,2.56563
-0.213423,-0.072786,2.555,2.56493
-0.20513,-0.072786,2.555,2.56425
-0.196837,-0.072786,2.555,2.5636
-0.188544,-0.072786,2.555,2.56298
-0.180251,-0.072786,2.555,2.56238
-0.171958,-0.072786,2.555,2.56181
-0.163665,-0.072786,2.555,2.56127
-0.155372,-0.072786,2.555,2.56075
-0.14708,-0.072786,2.555,2.56026
-0.138787,-0.072786,2.555,2.5598
-0.130494,-0.072786,2.555,2.55937
-0.12311,-0.0733273,2.574,2.57799
-0.114755,-0.0733273,2.574,2.5776
-0.1064,-0.0733273,2.574,2.57724
-0.0980459,-0.0733273,2.574,2.57691
-0.0896914,-0.0733273,2.574,2.57661
-0.0813368,-0.0733273,2.574,2.57633
-0.073521,-0.0738686,2.593,2.59509
-0.0651047,-0.0738686,2.593,2.59487
-0.0566885,-0.0738686,2.593,2.59467
-0.0486446,-0.0744383,2.613,2.61451
-0.0401634,-0.0744383,2.613,2.61437
-0.0316823,-0.0744383,2.613,2.61425
-0.0232011,-0.0744383,2.613,2.61416
-0.01472,-0.0744383,2.613,2.6141
-0.00623883,-0.0744383,2.613,2.61407
0.00224232,-0.0744383,2.613,2.61406
0.0106414,-0.0738686,2.593,2.59407
0.0190576,-0.0738686,2.593,2.59412
0.0274739,-0.0738686,2.593,2.5942
0.0358901,-0.0738686,2.593,2.5943
0.0443063,-0.0738686,2.593,2.59443
0.0523362,-0.0733273,2.574,2.57558
0.0602428,-0.072786,2.555,2.55675
0.0685357,-0.072786,2.555,2.55696
0.0768286,-0.072786,2.555,2.55719
0.0851215,-0.072786,2.555,2.55745
0.0934144,-0.072786,2.555,2.55774
0.100951,-0.0722448,2.536,2.53904
0.109182,-0.0722448,2.536,2.53938
0.117413,-0.0722448,2.536,2.53974
0.125645,-0.0722448,2.536,2.54014
0.133876,-0.0722448,2.536,2.54056
0.142107,-0.0722448,2.536,2.54101
0.151465,-0.072786,2.555,2.56052
0.159758,-0.072786,2.555,2.56102
0.16805,-0.072786,2.555,2.56155
0.177655,-0.0733273,2.574,2.58117
0.186009,-0.0733273,2.574,2.58175
0.194364,-0.0733273,2.574,2.58237
0.204215,-0.0738686,2.593,2.60208
0.212631,-0.0738686,2.593,2.60275
0.221047,-0.0738686,2.593,2.60345
0.229463,-0.0738686,2.593,2.60418
0.23788,-0.0738686,2.593,2.60494
0.246296,-0.0738686,2.593,2.60572
0.252846,-0.0733273,2.574,2.58743
0.2612,-0.0733273,2.574,2.58826
0.269555,-0.0733273,2.574,2.58911
0.27791,-0.0733273,2.574,2.59
0.286264,-0.0733273,2.574,2.59091
0.292444,-0.072786,2.555,2.57271
0.300737,-0.072786,2.555,2.57367
0.30903,-0.072786,2.555,2.57465
0.317323,-0.072786,2.555,2.57566
0.323194,-0.0722448,2.536,2.55753
0.331425,-0.0722448,2.536,2.55859
0.339657,-0.0722448,2.536,2.55966
0.345281,-0.0717035,2.517,2.54158
0.353451,-0.0717035,2.517,2.54271
nan,nan,nan,NaN
nan,nan,nan,NaN
0.375257,-0.0711907,2.499,2.52802
0.383368,-0.0711907,2.499,2.52924
0.388659,-0.0706779,2.481,2.51225
0.396712,-0.0706779,2.481,2.51351
nan,nan,nan,NaN
nan,nan,nan,NaN
nan,nan,nan,NaN
nan,nan,nan,NaN
nan,nan,nan,NaN
nan,nan,nan,NaN
nan,nan,nan,NaN
nan,nan,nan,NaN
nan,nan,nan,NaN
nan,nan,nan,NaN
nan,nan,nan,NaN
nan,nan,nan,NaN
nan,nan,nan,NaN
0.516842,-0.0717035,2.517,2.57052
0.525012,-0.0717035,2.517,2.57217
0.533181,-0.0717035,2.517,2.57385
0.545437,-0.0722448,2.536,2.595
0.561965,-0.0733273,2.574,2.63565
0.570319,-0.0733273,2.574,2.63745
0.578674,-0.0733273,2.574,2.63926
0.587028,-0.0733273,2.574,2.64111
0.595383,-0.0733273,2.574,2.64298
0.603738,-0.0733273,2.574,2.64487
0.61661,-0.0738686,2.593,2.66633
0.625027,-0.0738686,2.593,2.66829
0.633443,-0.0738686,2.593,2.67027
0.641859,-0.0738686,2.593,2.67228
0.650275,-0.0738686,2.593,2.67432
0.658691,-0.0738686,2.593,2.67637
0.662219,-0.0733273,2.574,2.65883
0.670574,-0.0733273,2.574,2.66093
0.678929,-0.0733273,2.574,2.66304
0.687283,-0.0733273,2.574,2.66519
0.695638,-0.0733273,2.574,2.66735
0.703992,-0.0733273,2.574,2.66954
0.712347,-0.0733273,2.574,2.67176
0.720701,-0.0733273,2.574,2.674
0.729056,-0.0733273,2.574,2.67626
0.731967,-0.072786,2.555,2.65878
0.74026,-0.072786,2.555,2.66107
0.748553,-0.072786,2.555,2.66339
0.756846,-0.072786,2.555,2.66573
0.765139,-0.072786,2.555,2.6681
0.773432,-0.072786,2.555,2.67049
0.781725,-0.072786,2.555,2.6729
0.790018,-0.072786,2.555,2.67534
0.804247,-0.0733273,2.574,2.69772
0.812602,-0.0733273,2.574,2.70022
0.820956,-0.0733273,2.574,2.70274
0.829311,-0.0733273,2.574,2.70529
0.837665,-0.0733273,2.574,2.70787
0.84602,-0.0733273,2.574,2.71046
0.854374,-0.0733273,2.574,2.71308
0.862729,-0.0733273,2.574,2.71572
0.871084,-0.0733273,2.574,2.71839
0.872947,-0.072786,2.555,2.70099
0.881239,-0.072786,2.555,2.70368
0.882918,-0.0722448,2.536,2.68627
0.884472,-0.0717035,2.517,2.66884
0.892642,-0.0717035,2.517,2.67156
0.894369,-0.0711907,2.499,2.65518
0.90248,-0.0711907,2.499,2.65792
0.904033,-0.0706779,2.481,2.64152
0.912085,-0.0706779,2.481,2.64429
0.913462,-0.0701652,2.463,2.62787
0.921457,-0.0701652,2.463,2.63066
0.929451,-0.0701652,2.463,2.63347
0.930594,-0.0696524,2.445,2.61704
0.93853,-0.0696524,2.445,2.61987
0.946466,-0.0696524,2.445,2.62272
0.947766,-0.0691681,2.428,2.60734
0.955646,-0.0691681,2.428,2.61022
0.963527,-0.0691681,2.428,2.61311
0.964606,-0.0686838,2.411,2.59771
0.972432,-0.0686838,2.411,2.60063
0.980257,-0.0686838,2.411,2.60356
0.988083,-0.0686838,2.411,2.60652
1.00995,-0.0696524,2.445,2.6463
1.02538,-0.0701652,2.463,2.66884
1.03338,-0.0701652,2.463,2.67192
1.04137,-0.0701652,2.463,2.67502
1.0647,-0.0711907,2.499,2.71729
1.09685,-0.072786,2.555,2.78144
1.10515,-0.072786,2.555,2.78472
1.13,-0.0738686,2.593,2.82949
1.1652,-0.0756063,2.654,2.8995
1.19239,-0.0768028,2.696,2.94892
1.20114,-0.0768028,2.696,2.95246
1.24893,-0.0792812,2.783,3.05143
1.27876,-0.0805916,2.829,3.10563
1.28794,-0.0805916,2.829,3.10943
1.31913,-0.0819591,2.877,3.16606
1.35109,-0.0833549,2.926,3.22395
1.36059,-0.0833549,2.926,3.22795
1.3818,-0.0840671,2.951,3.25957
1.39137,-0.0840671,2.951,3.26365
1.40095,-0.0840671,2.951,3.26774
1.41053,-0.0840671,2.951,3.27186
1.42011,-0.0840671,2.951,3.276
1.42969,-0.0840671,2.951,3.28016
1.43926,-0.0840671,2.951,3.28435
1.46161,-0.0848078,2.977,3.31753
1.47127,-0.0848078,2.977,3.3218
1.48093,-0.0848078,2.977,3.32609
1.4906,-0.0848078,2.977,3.33041
1.50026,-0.0848078,2.977,3.33474
1.52311,-0.0855485,3.003,3.36826
1.53285,-0.0855485,3.003,3.37268
1.55647,-0.0863177,3.03,3.40749
1.58026,-0.0870868,3.057,3.44239
1.59019,-0.0870868,3.057,3.44696
1.60011,-0.0870868,3.057,3.45155
1.62425,-0.087856,3.084,3.48668
1.63426,-0.087856,3.084,3.49136
1.67466,-0.0894798,3.141,3.56067
1.68485,-0.0894798,3.141,3.56548
1.69505,-0.0894798,3.141,3.57031
1.72099,-0.0903059,3.17,3.60817
1.74712,-0.0911321,3.199,3.64614
1.7575,-0.0911321,3.199,3.65112
1.75186,-0.0903059,3.17,3.62299
1.76214,-0.0903059,3.17,3.62798
1.78865,-0.0911321,3.199,3.66622
1.78272,-0.0903059,3.17,3.63802
1.79301,-0.0903059,3.17,3.64307
1.8033,-0.0903059,3.17,3.64814
1.797,-0.0894798,3.141,3.61982
1.79051,-0.0886537,3.112,3.59142
1.80061,-0.0886537,3.112,3.59647
1.81071,-0.0886537,3.112,3.60154
1.82081,-0.0886537,3.112,3.60663
1.81444,-0.087856,3.084,3.57924
1.82445,-0.087856,3.084,3.58433
1.8184,-0.0870868,3.057,3.55801
1.82832,-0.0870868,3.057,3.56309
1.83824,-0.0870868,3.057,3.56819
1.83184,-0.0863177,3.03,3.54175
1.82526,-0.0855485,3.003,3.51524
1.83501,-0.0855485,3.003,3.52031
1.82879,-0.0848078,2.977,3.49488
1.82239,-0.0840671,2.951,3.46938
1.83197,-0.0840671,2.951,3.47442
1.84155,-0.0840671,2.951,3.47948
1.81976,-0.0826428,2.901,3.42552
1.82918,-0.0826428,2.901,3.43053
1.8386,-0.0826428,2.901,3.43556
1.83272,-0.0819591,2.877,3.41214
1.81133,-0.0805916,2.829,3.36016
1.82051,-0.0805916,2.829,3.36511
1.79994,-0.0792812,2.783,3.31529
1.79467,-0.0786545,2.761,3.29396
1.80364,-0.0786545,2.761,3.29885
1.78371,-0.077401,2.717,3.25111
1.76482,-0.0762045,2.675,3.20562
1.7735,-0.0762045,2.675,3.21041
1.76819,-0.0756063,2.654,3.18998
1.74936,-0.0744383,2.613,3.1454
1.75784,-0.0744383,2.613,3.15013
1.73996,-0.0733273,2.574,3.10778
1.73541,-0.072786,2.555,3.08949
-1.90013,-0.0691401,2.739,3.33428
-1.86155,-0.0680547,2.696,3.27695
-1.8528,-0.0680547,2.696,3.27199
-1.82969,-0.0675246,2.675,3.2416
-1.80671,-0.0669945,2.654,3.21129
-1.7981,-0.0669945,2.654,3.20645
-1.78948,-0.0669945,2.654,3.20163
-1.78087,-0.0669945,2.654,3.19683
-1.77225,-0.0669945,2.654,3.19203
-1.76364,-0.0669945,2.654,3.18726
-1.75502,-0.0669945,2.654,3.1825
-1.76023,-0.0675246,2.675,3.2029
-1.75155,-0.0675246,2.675,3.19814
-1.75655,-0.0680547,2.696,3.21846
-1.7478,-0.0680547,2.696,3.2137
-1.75259,-0.0685848,2.717,3.23394
-1.74377,-0.0685848,2.717,3.22917
-1.76305,-0.0696955,2.761,3.27663
-1.78268,-0.0708314,2.806,3.32515
-1.77357,-0.0708314,2.806,3.32027
-1.77893,-0.071412,2.829,3.34259
-1.79977,-0.0726237,2.877,3.39435
-1.79043,-0.0726237,2.877,3.3894
-1.78109,-0.0726237,2.877,3.38448
-1.78654,-0.0732295,2.901,3.40777
-1.80775,-0.0744916,2.951,3.46149
-1.79817,-0.0744916,2.951,3.4565
-1.80435,-0.0751479,2.977,3.48193
-1.81036,-0.0758043,3.003,3.5073
-1.80062,-0.0758043,3.003,3.50228
-1.80697,-0.0764858,3.03,3.52872
-1.81315,-0.0771674,3.057,3.5551
-1.80323,-0.0771674,3.057,3.55005
-1.79331,-0.0771674,3.057,3.54502
-1.79914,-0.0778489,3.084,3.57127
-1.78913,-0.0778489,3.084,3.56624
-1.77912,-0.0778489,3.084,3.56123
-1.75362,-0.0771674,3.057,3.52511
-1.74369,-0.0771674,3.057,3.52018
-1.73377,-0.0771674,3.057,3.51528
-1.6934,-0.0758043,3.003,3.44839
-1.66908,-0.0751479,2.977,3.41379
-1.65941,-0.0751479,2.977,3.40908
-1.62149,-0.0738606,2.926,3.34607
-1.59822,-0.0732295,2.901,3.31292
-1.5888,-0.0732295,2.901,3.30839
-1.56632,-0.0726237,2.877,3.27655
-1.55698,-0.0726237,2.877,3.27209
-1.54764,-0.0726237,2.877,3.26766
-1.53831,-0.0726237,2.877,3.26325
-1.52897,-0.0726237,2.877,3.25886
-1.51963,-0.0726237,2.877,3.25449
-1.49769,-0.0720178,2.853,3.22302
-1.48843,-0.0720178,2.853,3.21873
-1.47917,-0.0720178,2.853,3.21446
-1.46991,-0.0720178,2.853,3.21021
-1.46065,-0.0720178,2.853,3.20598
-1.42748,-0.0708314,2.806,3.14902
-1.41837,-0.0708314,2.806,3.14491
-1.37562,-0.0691401,2.739,3.06582
-1.34527,-0.0680547,2.696,3.01377
-1.33652,-0.0680547,2.696,3.00987
-1.28689,-0.0659596,2.613,2.91345
-1.25933,-0.0649751,2.574,2.86629
-1.25098,-0.0649751,2.574,2.86263
-1.22428,-0.0640159,2.536,2.81678
-1.1983,-0.0630819,2.499,2.77217
-1.19019,-0.0630819,2.499,2.76867
-1.17357,-0.0626275,2.481,2.74528
-1.1486,-0.0617188,2.445,2.70206
-1.13274,-0.0612896,2.428,2.67993
-1.12485,-0.0612896,2.428,2.67661
-1.10915,-0.0608605,2.411,2.65459
-1.09356,-0.0604314,2.394,2.63263
-1.08579,-0.0604314,2.394,2.62942
-1.07037,-0.0600022,2.377,2.60757
-1.06265,-0.0600022,2.377,2.60441
-1.05494,-0.0600022,2.377,2.60127
-1.04017,-0.0595984,2.361,2.58066
-1.03251,-0.0595984,2.361,2.57759
-1.02485,-0.0595984,2.361,2.57453
-1.01718,-0.0595984,2.361,2.57148
-1.00952,-0.0595984,2.361,2.56846
-1.00186,-0.0595984,2.361,2.56546
-0.994193,-0.0595984,2.361,2.56248
-0.979844,-0.0591945,2.345,2.54217
-0.972232,-0.0591945,2.345,2.53925
-0.964621,-0.0591945,2.345,2.53634
-0.95701,-0.0591945,2.345,2.53346
-0.949399,-0.0591945,2.345,2.53059
-0.948213,-0.0595984,2.361,2.54499
-0.94055,-0.0595984,2.361,2.54215
-0.932887,-0.0595984,2.361,2.53932
-0.925224,-0.0595984,2.361,2.53652
-0.923778,-0.0600022,2.377,2.5509
-0.916063,-0.0600022,2.377,2.54812
-0.908348,-0.0600022,2.377,2.54535
-0.900633,-0.0600022,2.377,2.54261
-0.892918,-0.0600022,2.377,2.53989
-0.885203,-0.0600022,2.377,2.53719
-0.883763,-0.0604314,2.394,2.55263
-0.875993,-0.0604314,2.394,2.54995
-0.868223,-0.0604314,2.394,2.54729
-0.860452,-0.0604314,2.394,2.54465
-0.852682,-0.0604314,2.394,2.54204
-0.844912,-0.0604314,2.394,2.53944
-0.837141,-0.0604314,2.394,2.53687
-0.829371,-0.0604314,2.394,2.53431
-0.821601,-0.0604314,2.394,2.53178
-0.81383,-0.0604314,2.394,2.52927
-0.80606,-0.0604314,2.394,2.52678
-0.79829,-0.0604314,2.394,2.52431
-0.790519,-0.0604314,2.394,2.52187
-0.782749,-0.0604314,2.394,2.51944
-0.774979,-0.0604314,2.394,2.51704
-0.767208,-0.0604314,2.394,2.51466
-0.759438,-0.0604314,2.394,2.5123
-0.751668,-0.0604314,2.394,2.50996
-0.743897,-0.0604314,2.394,2.50764
-0.736127,-0.0604314,2.394,2.50535
-0.728357,-0.0604314,2.394,2.50308
-0.720586,-0.0604314,2.394,2.50083
-0.717878,-0.0608605,2.411,2.51634
-0.710052,-0.0608605,2.411,2.51412
-0.702227,-0.0608605,2.411,2.51192
-0.694401,-0.0608605,2.411,2.50974
-0.691417,-0.0612896,2.428,2.52527
-0.683536,-0.0612896,2.428,2.52313
-0.675655,-0.0612896,2.428,2.521
-0.67245,-0.0617188,2.445,2.53654
-0.664514,-0.0617188,2.445,2.53445
-0.656578,-0.0617188,2.445,2.53238
-0.648643,-0.0617188,2.445,2.53033
-0.645424,-0.0621731,2.463,2.54692
-0.637429,-0.0621731,2.463,2.54491
-0.629435,-0.0621731,2.463,2.54292
-0.621441,-0.0621731,2.463,2.54095
-0.613446,-0.0621731,2.463,2.53901
-0.605452,-0.0621731,2.463,2.53709
-0.601824,-0.0626275,2.481,2.55372
-0.593771,-0.0626275,2.481,2.55183
-0.585719,-0.0626275,2.481,2.54997
-0.577666,-0.0626275,2.481,2.54813
-0.569613,-0.0626275,2.481,2.54632
-0.561561,-0.0626275,2.481,2.54453
-0.557524,-0.0630819,2.499,2.56121
-0.549413,-0.0630819,2.499,2.55946
-0.541301,-0.0630819,2.499,2.55773
-0.53319,-0.0630819,2.499,2.55603
-0.528861,-0.0635362,2.517,2.57275
-0.520692,-0.0635362,2.517,2.57108
-0.512522,-0.0635362,2.517,2.56944
-0.504353,-0.0635362,2.517,2.56782
-0.499929,-0.0640159,2.536,2.5856
-0.491697,-0.0640159,2.536,2.58402
-0.483466,-0.0640159,2.536,2.58247
-0.475235,-0.0640159,2.536,2.58094
-0.467004,-0.0640159,2.536,2.57944
-0.458772,-0.0640159,2.536,2.57796
-0.450541,-0.0640159,2.536,2.57651
-0.445624,-0.0644955,2.555,2.59437
-0.437331,-0.0644955,2.555,2.59296
-0.425848,-0.0640159,2.536,2.5723
-0.417616,-0.0640159,2.536,2.57095
-0.409385,-0.0640159,2.536,2.56963
-0.404159,-0.0644955,2.555,2.58757
-0.395866,-0.0644955,2.555,2.58629
-0.384691,-0.0640159,2.536,2.56581
-0.37646,-0.0640159,2.536,2.56459
-0.368229,-0.0640159,2.536,2.56339
-0.359998,-0.0640159,2.536,2.56222
-0.351766,-0.0640159,2.536,2.56108
-0.343535,-0.0640159,2.536,2.55996
-0.335304,-0.0640159,2.536,2.55887
-0.327073,-0.0640159,2.536,2.55781
-0.318842,-0.0640159,2.536,2.55677
-0.31061,-0.0640159,2.536,2.55575
-0.302379,-0.0640159,2.536,2.55477
-0.294148,-0.0640159,2.536,2.5538
-0.285917,-0.0640159,2.536,2.55287
-0.277685,-0.0640159,2.536,2.55196
-0.269454,-0.0640159,2.536,2.55108
-0.261223,-0.0640159,2.536,2.55022
-0.252992,-0.0640159,2.536,2.54939
-0.244761,-0.0640159,2.536,2.54859
-0.238301,-0.0644955,2.555,2.5669
-0.230009,-0.0644955,2.555,2.56614
-0.221716,-0.0644955,2.555,2.56541
-0.213423,-0.0644955,2.555,2.56471
-0.20513,-0.0644955,2.555,2.56403
-0.196837,-0.0644955,2.555,2.56338
-0.188544,-0.0644955,2.555,2.56276
-0.180251,-0.0644955,2.555,2.56216
-0.171958,-0.0644955,2.555,2.56159
-0.163665,-0.0644955,2.555,2.56105
-0.155372,-0.0644955,2.555,2.56053
-0.14708,-0.0644955,2.555,2.56004
-0.138787,-0.0644955,2.555,2.55958
-0.130494,-0.0644955,2.555,2.55914
-0.122201,-0.0644955,2.555,2.55873
-0.113908,-0.0644955,2.555,2.55835
-0.105615,-0.0644955,2.555,2.558
-0.0980459,-0.0649751,2.574,2.57669
-0.0896914,-0.0649751,2.574,2.57638
-0.0813368,-0.0649751,2.574,2.5761
-0.073521,-0.0654547,2.593,2.59487
-0.0651047,-0.0654547,2.593,2.59464
-0.0566885,-0.0654547,2.593,2.59445
-0.0482722,-0.0654547,2.593,2.59428
-0.0401634,-0.0659596,2.613,2.61414
-0.0316823,-0.0659596,2.613,2.61402
-0.0232011,-0.0659596,2.613,2.61394
-0.01472,-0.0659596,2.613,2.61387
-0.00623883,-0.0659596,2.613,2.61384
0.00224232,-0.0659596,2.613,2.61383
0.0106414,-0.0654547,2.593,2.59385
0.0190576,-0.0654547,2.593,2.5939
0.0274739,-0.0654547,2.593,2.59397
0.0358901,-0.0654547,2.593,2.59407
0.0443063,-0.0654547,2.593,2.5942
0.0523362,-0.0649751,2.574,2.57535
0.0606908,-0.0649751,2.574,2.57554
0.0690454,-0.0649751,2.574,2.57575
0.0768286,-0.0644955,2.555,2.55697
0.0851215,-0.0644955,2.555,2.55723
0.0934144,-0.0644955,2.555,2.55752
0.101707,-0.0644955,2.555,2.55784
0.11,-0.0644955,2.555,2.55818
0.117413,-0.0640159,2.536,2.53952
0.125645,-0.0640159,2.536,2.53992
0.133876,-0.0640159,2.536,2.54034
0.142107,-0.0640159,2.536,2.54079
0.151465,-0.0644955,2.555,2.5603
0.159758,-0.0644955,2.555,2.5608
0.16805,-0.0644955,2.555,2.56133
0.177655,-0.0649751,2.574,2.58094
0.186009,-0.0649751,2.574,2.58153
0.194364,-0.0649751,2.574,2.58215
0.204215,-0.0654547,2.593,2.60185
0.212631,-0.0654547,2.593,2.60253
0.221047,-0.0654547,2.593,2.60323
0.229463,-0.0654547,2.593,2.60396
0.23788,-0.0654547,2.593,2.60471
0.244491,-0.0649751,2.574,2.5864
0.252846,-0.0649751,2.574,2.5872
0.2612,-0.0649751,2.574,2.58803
0.269555,-0.0649751,2.574,2.58889
0.275858,-0.0644955,2.555,2.57066
0.284151,-0.0644955,2.555,2.57156
0.292444,-0.0644955,2.555,2.57249
0.300737,-0.0644955,2.555,2.57345
0.30903,-0.0644955,2.555,2.57443
0.317323,-0.0644955,2.555,2.57544
0.323194,-0.0640159,2.536,2.55731
0.331425,-0.0640159,2.536,2.55837
0.339657,-0.0640159,2.536,2.55945
0.345281,-0.0635362,2.517,2.54137
0.353451,-0.0635362,2.517,2.54249
nan,nan,nan,NaN
nan,nan,nan,NaN
0.375257,-0.0630819,2.499,2.52781
0.383368,-0.0630819,2.499,2.52902
0.388659,-0.0626275,2.481,2.51204
0.396712,-0.0626275,2.481,2.5133
nan,nan,nan,NaN
nan,nan,nan,NaN
nan,nan,nan,NaN
nan,nan,nan,NaN
nan,nan,nan,NaN
nan,nan,nan,NaN
nan,nan,nan,NaN
nan,nan,nan,NaN
nan,nan,nan,NaN
nan,nan,nan,NaN
nan,nan,nan,NaN
nan,nan,nan,NaN
nan,nan,nan,NaN
nan,nan,nan,NaN
nan,nan,nan,NaN
0.541231,-0.0644955,2.555,2.61249
0.549524,-0.0644955,2.555,2.61422
0.561965,-0.0649751,2.574,2.63543
0.570319,-0.0649751,2.574,2.63723
0.578674,-0.0649751,2.574,2.63905
0.587028,-0.0649751,2.574,2.64089
0.595383,-0.0649751,2.574,2.64276
0.603738,-0.0649751,2.574,2.64465
0.612092,-0.0649751,2.574,2.64657
0.620447,-0.0649751,2.574,2.64852
0.628801,-0.0649751,2.574,2.65049
0.641859,-0.0654547,2.593,2.67206
0.650275,-0.0654547,2.593,2.6741
0.658691,-0.0654547,2.593,2.67616
0.662219,-0.0649751,2.574,2.65861
0.670574,-0.0649751,2.574,2.66071
0.678929,-0.0649751,2.574,2.66283
0.687283,-0.0649751,2.574,2.66497
0.695638,-0.0649751,2.574,2.66714
0.703992,-0.0649751,2.574,2.66933
0.712347,-0.0649751,2.574,2.67154
0.720701,-0.0649751,2.574,2.67378
0.729056,-0.0649751,2.574,2.67605
0.731967,-0.0644955,2.555,2.65856
0.74026,-0.0644955,2.555,2.66086
0.748553,-0.0644955,2.555,2.66318
0.756846,-0.0644955,2.555,2.66552
0.765139,-0.0644955,2.555,2.66789
0.773432,-0.0644955,2.555,2.67028
0.781725,-0.0644955,2.555,2.67269
0.790018,-0.0644955,2.555,2.67513
0.804247,-0.0649751,2.574,2.6975
0.812602,-0.0649751,2.574,2.7
0.820956,-0.0649751,2.574,2.70253
0.829311,-0.0649751,2.574,2.70508
0.837665,-0.0649751,2.574,2.70765
0.84602,-0.0649751,2.574,2.71025
0.854374,-0.0649751,2.574,2.71287
0.862729,-0.0649751,2.574,2.71551
0.871084,-0.0649751,2.574,2.71818
0.872947,-0.0644955,2.555,2.70078
0.881239,-0.0644955,2.555,2.70347
0.882918,-0.0640159,2.536,2.68606
0.884472,-0.0635362,2.517,2.66864
0.892642,-0.0635362,2.517,2.67135
0.900811,-0.0635362,2.517,2.6741
0.90248,-0.0630819,2.499,2.65772
0.904033,-0.0626275,2.481,2.64132
0.912085,-0.0626275,2.481,2.64408
0.913462,-0.0621731,2.463,2.62767
0.921457,-0.0621731,2.463,2.63046
0.929451,-0.0621731,2.463,2.63327
0.930594,-0.0617188,2.445,2.61684
0.93853,-0.0617188,2.445,2.61967
0.946466,-0.0617188,2.445,2.62252
0.954402,-0.0617188,2.445,2.6254
0.955646,-0.0612896,2.428,2.61002
0.963527,-0.0612896,2.428,2.61292
0.971408,-0.0612896,2.428,2.61583
0.979289,-0.0612896,2.428,2.61877
0.987169,-0.0612896,2.428,2.62173
0.99505,-0.0612896,2.428,2.6247
1.00995,-0.0617188,2.445,2.6461
1.03288,-0.0626275,2.481,2.68814
1.04848,-0.0630819,2.499,2.71077
1.05659,-0.0630819,2.499,2.71392
1.07237,-0.0635362,2.517,2.73666
1.10501,-0.0649751,2.574,2.80192
1.11337,-0.0649751,2.574,2.80522
