1.71597,-0.0599914,3.199,3.63067
1.74308,-0.0605727,3.23,3.67082
1.75356,-0.0605727,3.23,3.67581
1.78043,-0.0611353,3.26,3.71501
1.80859,-0.0617354,3.292,3.75661
1.81928,-0.0617354,3.292,3.76176
1.82996,-0.0617354,3.292,3.76694
1.84065,-0.0617354,3.292,3.77214
1.83334,-0.0611353,3.26,3.74065
1.84392,-0.0611353,3.26,3.74585
1.8545,-0.0611353,3.26,3.75107
1.86508,-0.0611353,3.26,3.75631
1.87566,-0.0611353,3.26,3.76157
1.86888,-0.0605727,3.23,3.7322
1.87937,-0.0605727,3.23,3.73746
1.87171,-0.0599914,3.199,3.70682
1.8821,-0.0599914,3.199,3.71207
1.89248,-0.0599914,3.199,3.71735
1.88561,-0.0594476,3.17,3.6889
1.87856,-0.0589037,3.141,3.66037
1.88875,-0.0589037,3.141,3.66562
1.88142,-0.0583599,3.112,3.63699
1.8745,-0.0578348,3.084,3.60945
1.88451,-0.0578348,3.084,3.61466
1.87793,-0.0573284,3.057,3.5882
1.85451,-0.0563158,3.003,3.52993
1.86425,-0.0563158,3.003,3.53506
1.85777,-0.0558282,2.977,3.50955
1.85113,-0.0553406,2.951,3.48398
1.86071,-0.0553406,2.951,3.48908
1.85444,-0.0548718,2.926,3.4646
1.84801,-0.0544029,2.901,3.44004
1.82669,-0.0535028,2.853,3.38811
1.83595,-0.0535028,2.853,3.39311
1.82969,-0.0530527,2.829,3.36954
1.80897,-0.0521901,2.783,3.31967
1.81801,-0.0521901,2.783,3.3246
1.78371,-0.0509524,2.717,3.25059
1.76482,-0.0501647,2.675,3.20511
1.7735,-0.0501647,2.675,3.2099
1.7542,-0.0493771,2.633,3.16423
1.73597,-0.048627,2.593,3.12083
1.74439,-0.048627,2.593,3.12552
1.71427,-0.047558,2.536,3.06142
1.69737,-0.0468642,2.499,3.0213
-1.8703,-0.0418105,2.696,3.28149
-1.83255,-0.0411591,2.654,3.22547
-1.82394,-0.0411591,2.654,3.22058
-1.80096,-0.0408334,2.633,3.19027
-1.7788,-0.0405233,2.613,3.16126
-1.77032,-0.0405233,2.613,3.15649
-1.74835,-0.0402131,2.593,3.12762
-1.73994,-0.0402131,2.593,3.12292
-1.73152,-0.0402131,2.593,3.11824
-1.7231,-0.0402131,2.593,3.11358
-1.71469,-0.0402131,2.593,3.10893
-1.70627,-0.0402131,2.593,3.10429
-1.69785,-0.0402131,2.593,3.09967
-1.68944,-0.0402131,2.593,3.09507
-1.68102,-0.0402131,2.593,3.09049
-1.67261,-0.0402131,2.593,3.08592
-1.66419,-0.0402131,2.593,3.08136
-1.65577,-0.0402131,2.593,3.07682
-1.66006,-0.0405233,2.613,3.096
-1.65158,-0.0405233,2.613,3.09146
-1.66888,-0.0411591,2.654,3.13538
-1.66027,-0.0411591,2.654,3.1308
-1.65165,-0.0411591,2.654,3.12624
-1.65604,-0.0414848,2.675,3.1464
-1.64736,-0.0414848,2.675,3.14184
-1.65154,-0.0418105,2.696,3.16192
-1.64279,-0.0418105,2.696,3.15736
-1.64677,-0.0421361,2.717,3.17737
-1.63795,-0.0421361,2.717,3.17281
-1.62913,-0.0421361,2.717,3.16827
-1.63343,-0.0424773,2.739,3.18936
-1.65064,-0.0431597,2.783,3.23598
-1.6416,-0.0431597,2.783,3.23138
-1.63257,-0.0431597,2.783,3.2268
-1.63696,-0.0435164,2.806,3.24887
-1.65511,-0.0442453,2.853,3.29863
-1.64585,-0.0442453,2.853,3.294
-1.65036,-0.0446175,2.877,3.31705
-1.66897,-0.0453774,2.926,3.36883
-1.65948,-0.0453774,2.926,3.36413
-1.64998,-0.0453774,2.926,3.35946
-1.61301,-0.0446175,2.877,3.29862
-1.60367,-0.0446175,2.877,3.29407
-1.58103,-0.0442453,2.853,3.26209
-1.57177,-0.0442453,2.853,3.25761
-1.56251,-0.0442453,2.853,3.25315
-1.54019,-0.0438731,2.829,3.22139
-1.531,-0.0438731,2.829,3.21701
-1.52182,-0.0438731,2.829,3.21265
-1.50034,-0.0435164,2.806,3.18223
-1.47901,-0.0431597,2.783,3.15189
-1.46998,-0.0431597,2.783,3.14766
-1.46095,-0.0431597,2.783,3.14346
-1.44044,-0.0428185,2.761,3.11445
-1.42007,-0.0424773,2.739,3.08553
-1.41118,-0.0424773,2.739,3.08145
-1.39102,-0.0421361,2.717,3.05267
-1.37152,-0.0418105,2.696,3.0251
-1.36277,-0.0418105,2.696,3.02114
-1.33293,-0.0411591,2.654,2.9702
-1.30385,-0.0405233,2.613,2.92052
-1.29537,-0.0405233,2.613,2.91675
-1.26769,-0.0399185,2.574,2.86951
-1.25003,-0.0396238,2.555,2.84468
-1.24174,-0.0396238,2.555,2.84104
-1.22428,-0.0393291,2.536,2.81633
-1.21605,-0.0393291,2.536,2.81276
-1.20781,-0.0393291,2.536,2.80921
-1.19958,-0.0393291,2.536,2.80568
-1.18243,-0.0390345,2.517,2.78118
-1.16586,-0.0387553,2.499,2.75785
-1.15775,-0.0387553,2.499,2.75443
-1.14136,-0.0384762,2.481,2.73122
-1.1333,-0.0384762,2.481,2.72786
-1.12525,-0.0384762,2.481,2.72452
-1.10909,-0.038197,2.463,2.70147
-1.09305,-0.0379179,2.445,2.67847
-1.08512,-0.0379179,2.445,2.67525
-1.07718,-0.0379179,2.445,2.67204
-1.06181,-0.0376542,2.428,2.65029
-1.05393,-0.0376542,2.428,2.64714
-1.04605,-0.0376542,2.428,2.64402
-1.03817,-0.0376542,2.428,2.64091
-1.03029,-0.0376542,2.428,2.63782
-1.02241,-0.0376542,2.428,2.63475
-1.00742,-0.0373906,2.411,2.61328
-0.999596,-0.0373906,2.411,2.61027
-0.99177,-0.0373906,2.411,2.60728
-0.983945,-0.0373906,2.411,2.60432
-0.969237,-0.037127,2.394,2.58303
-0.961466,-0.037127,2.394,2.58012
-0.953696,-0.037127,2.394,2.57724
-0.945926,-0.037127,2.394,2.57437
-0.931494,-0.0368633,2.377,2.55327
-0.923778,-0.0368633,2.377,2.55046
-0.916063,-0.0368633,2.377,2.54768
-0.908348,-0.0368633,2.377,2.54491
-0.900633,-0.0368633,2.377,2.54217
-0.892918,-0.0368633,2.377,2.53945
-0.885203,-0.0368633,2.377,2.53674
-0.877488,-0.0368633,2.377,2.53406
-0.869772,-0.0368633,2.377,2.5314
-0.862057,-0.0368633,2.377,2.52876
-0.854342,-0.0368633,2.377,2.52614
-0.846627,-0.0368633,2.377,2.52354
-0.838912,-0.0368633,2.377,2.52096
-0.831197,-0.0368633,2.377,2.51841
-0.829371,-0.037127,2.394,2.53386
-0.821601,-0.037127,2.394,2.53133
-0.81383,-0.037127,2.394,2.52882
-0.80606,-0.037127,2.394,2.52633
-0.79829,-0.037127,2.394,2.52386
-0.796133,-0.0373906,2.411,2.53932
-0.788307,-0.0373906,2.411,2.53688
-0.785985,-0.0376542,2.428,2.55233
-0.778104,-0.0376542,2.428,2.54991
-0.775616,-0.0379179,2.445,2.56535
-0.767681,-0.0379179,2.445,2.56297
-0.759745,-0.0379179,2.445,2.5606
-0.751809,-0.0379179,2.445,2.55826
-0.749349,-0.038197,2.463,2.57475
-0.741355,-0.038197,2.463,2.57244
-0.73872,-0.0384762,2.481,2.58893
-0.730668,-0.0384762,2.481,2.58664
-0.722615,-0.0384762,2.481,2.58438
-0.714562,-0.0384762,2.481,2.58214
-0.706509,-0.0384762,2.481,2.57992
-0.703524,-0.0387553,2.499,2.59643
-0.690404,-0.0384762,2.481,2.57556
-0.682351,-0.0384762,2.481,2.57341
-0.674299,-0.0384762,2.481,2.57129
-0.666246,-0.0384762,2.481,2.56919
-0.658193,-0.0384762,2.481,2.56711
-0.65014,-0.0384762,2.481,2.56506
-0.642088,-0.0384762,2.481,2.56303
-0.634035,-0.0384762,2.481,2.56102
-0.621441,-0.038197,2.463,2.54048
-0.613446,-0.038197,2.463,2.53853
-0.605452,-0.038197,2.463,2.53661
-0.597458,-0.038197,2.463,2.53472
-0.589464,-0.038197,2.463,2.53284
-0.581469,-0.038197,2.463,2.53099
-0.573475,-0.038197,2.463,2.52917
-0.565481,-0.038197,2.463,2.52737
-0.557486,-0.038197,2.463,2.52559
-0.549492,-0.038197,2.463,2.52384
-0.541498,-0.038197,2.463,2.52211
-0.533504,-0.038197,2.463,2.52041
-0.525509,-0.038197,2.463,2.51873
-0.517515,-0.038197,2.463,2.51707
-0.509521,-0.038197,2.463,2.51544
-0.501526,-0.038197,2.463,2.51383
-0.493532,-0.038197,2.463,2.51225
-0.489086,-0.0384762,2.481,2.52904
-0.481034,-0.0384762,2.481,2.5275
-0.472981,-0.0384762,2.481,2.52598
-0.464928,-0.0384762,2.481,2.52448
-0.456875,-0.0384762,2.481,2.52301
-0.448823,-0.0384762,2.481,2.52156
-0.44077,-0.0384762,2.481,2.52014
-0.435857,-0.0387553,2.499,2.53702
-0.427746,-0.0387553,2.499,2.53564
-0.419634,-0.0387553,2.499,2.53428
-0.414487,-0.0390345,2.517,2.5512
-0.406318,-0.0390345,2.517,2.54988
-0.398148,-0.0390345,2.517,2.54859
-0.389979,-0.0390345,2.517,2.54733
-0.381809,-0.0390345,2.517,2.54609
-0.37364,-0.0390345,2.517,2.54488
-0.368229,-0.0393291,2.536,2.5629
-0.359998,-0.0393291,2.536,2.56173
-0.351766,-0.0393291,2.536,2.56058
-0.343535,-0.0393291,2.536,2.55946
-0.337816,-0.0396238,2.555,2.57754
-0.329523,-0.0396238,2.555,2.57647
-0.318842,-0.0393291,2.536,2.55627
-0.31061,-0.0393291,2.536,2.55525
-0.302379,-0.0393291,2.536,2.55427
-0.294148,-0.0393291,2.536,2.5533
-0.285917,-0.0393291,2.536,2.55237
-0.277685,-0.0393291,2.536,2.55146
-0.269454,-0.0393291,2.536,2.55058
-0.261223,-0.0393291,2.536,2.54972
-0.252992,-0.0393291,2.536,2.54889
-0.242927,-0.0390345,2.517,2.529
-0.234757,-0.0390345,2.517,2.52823
-0.226588,-0.0390345,2.517,2.52748
-0.218418,-0.0390345,2.517,2.52676
-0.210249,-0.0390345,2.517,2.52607
-0.202079,-0.0390345,2.517,2.5254
-0.193909,-0.0390345,2.517,2.52476
-0.18574,-0.0390345,2.517,2.52415
-0.17757,-0.0390345,2.517,2.52356
-0.169401,-0.0390345,2.517,2.523
-0.161231,-0.0390345,2.517,2.52246
-0.153062,-0.0390345,2.517,2.52195
-0.144892,-0.0390345,2.517,2.52147
-0.136723,-0.0390345,2.517,2.52101
-0.128553,-0.0390345,2.517,2.52058
-0.120383,-0.0390345,2.517,2.52018
-0.112214,-0.0390345,2.517,2.5198
-0.104044,-0.0390345,2.517,2.51945
-0.0958747,-0.0390345,2.517,2.51913
-0.0877052,-0.0390345,2.517,2.51883
-0.0795356,-0.0390345,2.517,2.51856
-0.0713661,-0.0390345,2.517,2.51831
-0.0631965,-0.0390345,2.517,2.5181
-0.055027,-0.0390345,2.517,2.5179
-0.0468574,-0.0390345,2.517,2.51774
-0.0386878,-0.0390345,2.517,2.5176
-0.0305183,-0.0390345,2.517,2.51749
-0.0223487,-0.0390345,2.517,2.5174
-0.0141792,-0.0390345,2.517,2.51734
-0.00600962,-0.0390345,2.517,2.51731
0.00215994,-0.0390345,2.517,2.5173
0.0103295,-0.0390345,2.517,2.51732
0.0183668,-0.0387553,2.499,2.49937
0.0264779,-0.0387553,2.499,2.49944
0.0343399,-0.0384762,2.481,2.48154
0.0423926,-0.0384762,2.481,2.48166
0.0504453,-0.0384762,2.481,2.48181
0.058498,-0.0384762,2.481,2.48199
0.0665507,-0.0384762,2.481,2.48219
0.0746034,-0.0384762,2.481,2.48242
0.0820565,-0.038197,2.463,2.46466
0.0900507,-0.038197,2.463,2.46494
0.0973285,-0.0379179,2.445,2.44723
0.105264,-0.0379179,2.445,2.44756
0.114034,-0.038197,2.463,2.46593
0.122028,-0.038197,2.463,2.46632
0.130022,-0.038197,2.463,2.46673
0.138016,-0.038197,2.463,2.46716
0.146011,-0.038197,2.463,2.46762
0.154005,-0.038197,2.463,2.46811
0.161999,-0.038197,2.463,2.46862
0.169994,-0.038197,2.463,2.46915
0.177988,-0.038197,2.463,2.46972
0.185982,-0.038197,2.463,2.47031
0.195394,-0.0384762,2.481,2.48898
0.203447,-0.0384762,2.481,2.48963
0.2115,-0.0384762,2.481,2.4903
0.219552,-0.0384762,2.481,2.49099
0.227605,-0.0384762,2.481,2.49172
0.235658,-0.0384762,2.481,2.49246
0.24371,-0.0384762,2.481,2.49324
0.251763,-0.0384762,2.481,2.49404
0.259816,-0.0384762,2.481,2.49486
0.267868,-0.0384762,2.481,2.49572
0.275921,-0.0384762,2.481,2.49659
0.283974,-0.0384762,2.481,2.4975
0.292027,-0.0384762,2.481,2.49842
0.300079,-0.0384762,2.481,2.49938
0.308132,-0.0384762,2.481,2.50036
0.316185,-0.0384762,2.481,2.50136
0.324237,-0.0384762,2.481,2.50239
0.33229,-0.0384762,2.481,2.50345
0.340343,-0.0384762,2.481,2.50453
0.348396,-0.0384762,2.481,2.50564
0.356448,-0.0384762,2.481,2.50677
0.364501,-0.0384762,2.481,2.50793
0.372554,-0.0384762,2.481,2.50911
0.380606,-0.0384762,2.481,2.51032
0.388659,-0.0384762,2.481,2.51155
0.39959,-0.0387553,2.499,2.53104
0.407701,-0.0387553,2.499,2.53234
0.415812,-0.0387553,2.499,2.53365
0.423923,-0.0387553,2.499,2.535
0.432035,-0.0387553,2.499,2.53637
0.440146,-0.0387553,2.499,2.53776
0.448257,-0.0387553,2.499,2.53918
0.456368,-0.0387553,2.499,2.54062
0.464479,-0.0387553,2.499,2.54209
0.47259,-0.0387553,2.499,2.54359
0.480701,-0.0387553,2.499,2.54511
0.492333,-0.0390345,2.517,2.565
0.500503,-0.0390345,2.517,2.56658
0.508672,-0.0390345,2.517,2.56818
0.516842,-0.0390345,2.517,2.56981
0.525012,-0.0390345,2.517,2.57147
0.533181,-0.0390345,2.517,2.57315
0.541351,-0.0390345,2.517,2.57485
0.54952,-0.0390345,2.517,2.57658
0.55769,-0.0390345,2.517,2.57834
0.565859,-0.0390345,2.517,2.58012
0.574029,-0.0390345,2.517,2.58192
0.582199,-0.0390345,2.517,2.58375
0.590368,-0.0390345,2.517,2.5856
0.598538,-0.0390345,2.517,2.58748
0.606707,-0.0390345,2.517,2.58938
0.614877,-0.0390345,2.517,2.59131
0.623046,-0.0390345,2.517,2.59326
0.631216,-0.0390345,2.517,2.59524
0.639385,-0.0390345,2.517,2.59723
0.647555,-0.0390345,2.517,2.59926
0.655725,-0.0390345,2.517,2.60131
0.663894,-0.0390345,2.517,2.60338
0.672064,-0.0390345,2.517,2.60547
0.680233,-0.0390345,2.517,2.60759
0.688403,-0.0390345,2.517,2.60973
0.696572,-0.0390345,2.517,2.6119
0.704742,-0.0390345,2.517,2.61409
0.712911,-0.0390345,2.517,2.61631
0.721081,-0.0390345,2.517,2.61854
0.729251,-0.0390345,2.517,2.62081
0.73742,-0.0390345,2.517,2.62309
0.74559,-0.0390345,2.517,2.6254
0.753759,-0.0390345,2.517,2.62773
0.76768,-0.0393291,2.536,2.64994
0.775912,-0.0393291,2.536,2.65234
0.784143,-0.0393291,2.536,2.65475
0.792374,-0.0393291,2.536,2.6572
0.800605,-0.0393291,2.536,2.65966
0.808836,-0.0393291,2.536,2.66215
0.817068,-0.0393291,2.536,2.66467
0.825299,-0.0393291,2.536,2.6672
0.83353,-0.0393291,2.536,2.66976
0.841761,-0.0393291,2.536,2.67234
0.849993,-0.0393291,2.536,2.67494
0.858224,-0.0393291,2.536,2.67757
0.866455,-0.0393291,2.536,2.68022
0.874686,-0.0393291,2.536,2.68289
0.882918,-0.0393291,2.536,2.68559
0.884472,-0.0390345,2.517,2.66816
0.892642,-0.0390345,2.517,2.67088
0.900811,-0.0390345,2.517,2.67363
0.90248,-0.0387553,2.499,2.65725
0.910591,-0.0387553,2.499,2.66002
0.918703,-0.0387553,2.499,2.6628
0.920138,-0.0384762,2.481,2.64641
0.921457,-0.038197,2.463,2.63
0.929451,-0.038197,2.463,2.63281
0.937445,-0.038197,2.463,2.63565
0.945439,-0.038197,2.463,2.6385
0.953434,-0.038197,2.463,2.64138
0.954402,-0.0379179,2.445,2.62495
0.962338,-0.0379179,2.445,2.62784
0.970273,-0.0379179,2.445,2.63076
0.978209,-0.0379179,2.445,2.6337
0.986145,-0.0379179,2.445,2.63665
0.994081,-0.0379179,2.445,2.63963
1.00202,-0.0379179,2.445,2.64263
1.00995,-0.0379179,2.445,2.64565
1.03288,-0.0384762,2.481,2.68769
1.04848,-0.0387553,2.499,2.71032
1.05659,-0.0387553,2.499,2.71346
1.08047,-0.0393291,2.536,2.75686
1.10501,-0.0399185,2.574,2.80145
1.11337,-0.0399185,2.574,2.80476
1.15658,-0.0411591,2.654,2.89536
1.18364,-0.0418105,2.696,2.94468
1.21141,-0.0424773,2.739,2.99523
1.2203,-0.0424773,2.739,2.99884
1.24893,-0.0431597,2.783,3.0507
1.27876,-0.0438731,2.829,3.1049
1.28794,-0.0438731,2.829,3.10869
1.29712,-0.0438731,2.829,3.11251
1.31739,-0.0442453,2.853,3.14278
1.32665,-0.0442453,2.853,3.14667
1.34714,-0.0446175,2.877,3.17709
1.35648,-0.0446175,2.877,3.18106
1.36582,-0.0446175,2.877,3.18506
1.37516,-0.0446175,2.877,3.18907
1.3845,-0.0446175,2.877,3.19311
1.39384,-0.0446175,2.877,3.19717
1.40317,-0.0446175,2.877,3.20125
1.42429,-0.0449897,2.901,3.2321
1.44607,-0.0453774,2.926,3.26414
1.45556,-0.0453774,2.926,3.26836
1.46506,-0.0453774,2.926,3.2726
1.48716,-0.0457651,2.951,3.30486
1.49673,-0.0457651,2.951,3.30919
1.50631,-0.0457651,2.951,3.31353
1.5426,-0.0465715,3.003,3.37636
1.56631,-0.0469903,3.03,3.41122
1.57614,-0.0469903,3.03,3.41575
1.61424,-0.0478277,3.084,3.48125
1.639,-0.0482619,3.112,3.51755
1.6491,-0.0482619,3.112,3.52227
1.69012,-0.0491614,3.17,3.59275
1.70041,-0.0491614,3.17,3.5976
1.72635,-0.0496112,3.199,3.63543
1.73673,-0.0496112,3.199,3.64037
1.76405,-0.0500919,3.23,3.68066
1.79101,-0.0505572,3.26,3.71993
1.80159,-0.0505572,3.26,3.72504
1.81217,-0.0505572,3.26,3.73017
1.82276,-0.0505572,3.26,3.73532
1.81647,-0.0500919,3.23,3.70607
1.82695,-0.0500919,3.23,3.71122
1.83743,-0.0500919,3.23,3.71639
1.83018,-0.0496112,3.199,3.68587
1.84056,-0.0496112,3.199,3.69104
1.85095,-0.0496112,3.199,3.69622
1.86133,-0.0496112,3.199,3.70143
1.87171,-0.0496112,3.199,3.70667
1.86504,-0.0491614,3.17,3.67827
1.87532,-0.0491614,3.17,3.6835
1.88561,-0.0491614,3.17,3.68875
1.86121,-0.0482619,3.112,3.62643
1.87131,-0.0482619,3.112,3.63162
1.86449,-0.0478277,3.084,3.60412
1.85809,-0.047409,3.057,3.57771
1.86801,-0.047409,3.057,3.58287
1.87793,-0.047409,3.057,3.58805
1.85451,-0.0465715,3.003,3.52978
1.86425,-0.0465715,3.003,3.53491
1.85777,-0.0461683,2.977,3.50941
1.85113,-0.0457651,2.951,3.48384
1.86071,-0.0457651,2.951,3.48894
1.85444,-0.0453774,2.926,3.46446
1.84801,-0.0449897,2.901,3.43991
1.82669,-0.0442453,2.853,3.38798
1.83595,-0.0442453,2.853,3.39298
1.81482,-0.0435164,2.806,3.34202
1.80897,-0.0431597,2.783,3.31954
1.81801,-0.0431597,2.783,3.32447
1.78371,-0.0421361,2.717,3.25046
1.76482,-0.0414848,2.675,3.20499
1.7735,-0.0414848,2.675,3.20978
1.7542,-0.0408334,2.633,3.16411
1.72325,-0.0399185,2.574,3.09785
1.7316,-0.0399185,2.574,3.1025
1.71427,-0.0393291,2.536,3.0613
1.69737,-0.0387553,2.499,3.02119
-1.85574,-0.0328049,2.675,3.25583
-1.83255,-0.0325473,2.654,3.22537
-1.82394,-0.0325473,2.654,3.22049
-1.80096,-0.0322898,2.633,3.19017
-1.7788,-0.0320445,2.613,3.16116
-1.77032,-0.0320445,2.613,3.15639
-1.74835,-0.0317992,2.593,3.12752
-1.72719,-0.0315662,2.574,3.09994
-1.71883,-0.0315662,2.574,3.0953
-1.71048,-0.0315662,2.574,3.09066
-1.71469,-0.0317992,2.593,3.10883
-1.70627,-0.0317992,2.593,3.10419
-1.69785,-0.0317992,2.593,3.09958
-1.68944,-0.0317992,2.593,3.09497
-1.68102,-0.0317992,2.593,3.09039
-1.67261,-0.0317992,2.593,3.08582
-1.66419,-0.0317992,2.593,3.08126
-1.66854,-0.0320445,2.613,3.10046
-1.66006,-0.0320445,2.613,3.0959
-1.65158,-0.0320445,2.613,3.09136
-1.65568,-0.0322898,2.633,3.11047
-1.66027,-0.0325473,2.654,3.1307
-1.65165,-0.0325473,2.654,3.12614
-1.64304,-0.0325473,2.654,3.12159
-1.64736,-0.0328049,2.675,3.14173
-1.65154,-0.0330624,2.696,3.16182
-1.64279,-0.0330624,2.696,3.15726
-1.64677,-0.0333199,2.717,3.17727
-1.65121,-0.0335897,2.739,3.1984
-1.64232,-0.0335897,2.739,3.19382
-1.64655,-0.0338595,2.761,3.21487
-1.65064,-0.0341293,2.783,3.23587
-1.65517,-0.0344114,2.806,3.25798
-1.64606,-0.0344114,2.806,3.25336
-1.63696,-0.0344114,2.806,3.24876
-1.62785,-0.0344114,2.806,3.24418
-1.61874,-0.0344114,2.806,3.23962
-1.63659,-0.0349878,2.853,3.28927
-1.62733,-0.0349878,2.853,3.28467
-1.61807,-0.0349878,2.853,3.28009
nan,nan,nan,NaN
-1.61301,-0.0352821,2.877,3.29851
-1.60367,-0.0352821,2.877,3.29395
-1.58103,-0.0349878,2.853,3.26198
-1.57177,-0.0349878,2.853,3.2575
-1.56251,-0.0349878,2.853,3.25304
-1.52767,-0.0344114,2.806,3.19509
-1.51856,-0.0344114,2.806,3.19074
-1.50945,-0.0344114,2.806,3.18642
-1.50034,-0.0344114,2.806,3.18211
-1.47901,-0.0341293,2.783,3.15178
-1.46998,-0.0341293,2.783,3.14755
-1.46095,-0.0341293,2.783,3.14335
-1.44044,-0.0338595,2.761,3.11434
-1.42007,-0.0335897,2.739,3.08542
-1.41118,-0.0335897,2.739,3.08134
-1.39102,-0.0333199,2.717,3.05256
-1.36084,-0.0328049,2.675,3.00143
-1.35216,-0.0328049,2.675,2.9975
-1.32238,-0.0322898,2.633,2.9466
-1.30385,-0.0320445,2.613,2.92042
-1.29537,-0.0320445,2.613,2.91664
-1.26769,-0.0315662,2.574,2.86941
-1.25003,-0.0313332,2.555,2.84457
-1.24174,-0.0313332,2.555,2.84094
-1.22428,-0.0311002,2.536,2.81622
-1.21605,-0.0311002,2.536,2.81266
-1.20781,-0.0311002,2.536,2.80911
-1.19958,-0.0311002,2.536,2.80558
-1.18243,-0.0308672,2.517,2.78107
-1.16586,-0.0306465,2.499,2.75775
-1.15775,-0.0306465,2.499,2.75433
-1.14136,-0.0304257,2.481,2.73111
-1.1333,-0.0304257,2.481,2.72776
-1.12525,-0.0304257,2.481,2.72442
-1.10909,-0.030205,2.463,2.70136
-1.09305,-0.0299843,2.445,2.67837
-1.08512,-0.0299843,2.445,2.67514
-1.07718,-0.0299843,2.445,2.67194
-1.06181,-0.0297758,2.428,2.65019
-1.05393,-0.0297758,2.428,2.64704
-1.04605,-0.0297758,2.428,2.64391
-1.03817,-0.0297758,2.428,2.64081
-1.03029,-0.0297758,2.428,2.63772
-1.02241,-0.0297758,2.428,2.63465
-1.00742,-0.0295673,2.411,2.61318
-0.999596,-0.0295673,2.411,2.61017
-0.99177,-0.0295673,2.411,2.60718
-0.983945,-0.0295673,2.411,2.60422
-0.969237,-0.0293588,2.394,2.58293
-0.961466,-0.0293588,2.394,2.58002
-0.953696,-0.0293588,2.394,2.57714
-0.945926,-0.0293588,2.394,2.57427
-0.931494,-0.0291503,2.377,2.55317
-0.923778,-0.0291503,2.377,2.55036
-0.916063,-0.0291503,2.377,2.54758
-0.908348,-0.0291503,2.377,2.54481
-0.900633,-0.0291503,2.377,2.54207
-0.892918,-0.0291503,2.377,2.53935
-0.885203,-0.0291503,2.377,2.53664
-0.877488,-0.0291503,2.377,2.53396
-0.869772,-0.0291503,2.377,2.5313
-0.862057,-0.0291503,2.377,2.52866
-0.854342,-0.0291503,2.377,2.52604
-0.846627,-0.0291503,2.377,2.52344
-0.838912,-0.0291503,2.377,2.52086
-0.831197,-0.0291503,2.377,2.51831
-0.829371,-0.0293588,2.394,2.53376
-0.821601,-0.0293588,2.394,2.53123
-0.81383,-0.0293588,2.394,2.52872
-0.80606,-0.0293588,2.394,2.52623
-0.79829,-0.0293588,2.394,2.52376
-0.796133,-0.0295673,2.411,2.53922
-0.788307,-0.0295673,2.411,2.53677
-0.785985,-0.0297758,2.428,2.55222
-0.778104,-0.0297758,2.428,2.54981
-0.775616,-0.0299843,2.445,2.56525
-0.767681,-0.0299843,2.445,2.56286
-0.759745,-0.0299843,2.445,2.5605
-0.751809,-0.0299843,2.445,2.55815
-0.749349,-0.030205,2.463,2.57465
-0.741355,-0.030205,2.463,2.57233
-0.73872,-0.0304257,2.481,2.58882
-0.730668,-0.0304257,2.481,2.58653
-0.722615,-0.0304257,2.481,2.58427
-0.714562,-0.0304257,2.481,2.58203
-0.706509,-0.0304257,2.481,2.57981
-0.703524,-0.0306465,2.499,2.59632
-0.690404,-0.0304257,2.481,2.57545
-0.682351,-0.0304257,2.481,2.5733
-0.674299,-0.0304257,2.481,2.57118
-0.666246,-0.0304257,2.481,2.56908
-0.658193,-0.0304257,2.481,2.567
-0.65014,-0.0304257,2.481,2.56495
-0.642088,-0.0304257,2.481,2.56292
-0.634035,-0.0304257,2.481,2.56092
-0.621441,-0.030205,2.463,2.54037
-0.613446,-0.030205,2.463,2.53842
-0.605452,-0.030205,2.463,2.5365
-0.597458,-0.030205,2.463,2.53461
-0.589464,-0.030205,2.463,2.53274
-0.581469,-0.030205,2.463,2.53089
-0.573475,-0.030205,2.463,2.52906
-0.565481,-0.030205,2.463,2.52726
-0.557486,-0.030205,2.463,2.52548
-0.549492,-0.030205,2.463,2.52373
-0.541498,-0.030205,2.463,2.522
-0.533504,-0.030205,2.463,2.5203
-0.525509,-0.030205,2.463,2.51862
-0.517515,-0.030205,2.463,2.51696
-0.509521,-0.030205,2.463,2.51533
-0.501526,-0.030205,2.463,2.51372
-0.493532,-0.030205,2.463,2.51214
-0.489086,-0.0304257,2.481,2.52893
-0.481034,-0.0304257,2.481,2.52739
-0.472981,-0.0304257,2.481,2.52587
-0.464928,-0.0304257,2.481,2.52437
-0.456875,-0.0304257,2.481,2.5229
-0.448823,-0.0304257,2.481,2.52145
-0.44077,-0.0304257,2.481,2.52003
-0.435857,-0.0306465,2.499,2.53691
-0.427746,-0.0306465,2.499,2.53553
-0.419634,-0.0306465,2.499,2.53417
-0.414487,-0.0308672,2.517,2.55109
-0.406318,-0.0308672,2.517,2.54977
-0.398148,-0.0308672,2.517,2.54848
-0.389979,-0.0308672,2.517,2.54722
-0.381809,-0.0308672,2.517,2.54598
-0.37364,-0.0308672,2.517,2.54477
-0.368229,-0.0311002,2.536,2.56278
-0.359998,-0.0311002,2.536,2.56161
-0.351766,-0.0311002,2.536,2.56047
-0.343535,-0.0311002,2.536,2.55935
-0.337816,-0.0313332,2.555,2.57743
-0.329523,-0.0313332,2.555,2.57635
-0.318842,-0.0311002,2.536,2.55615
-0.31061,-0.0311002,2.536,2.55514
-0.302379,-0.0311002,2.536,2.55415
-0.294148,-0.0311002,2.536,2.55319
-0.285917,-0.0311002,2.536,2.55226
-0.277685,-0.0311002,2.536,2.55135
-0.269454,-0.0311002,2.536,2.55046
-0.261223,-0.0311002,2.536,2.54961
-0.252992,-0.0311002,2.536,2.54878
-0.242927,-0.0308672,2.517,2.52888
-0.234757,-0.0308672,2.517,2.52811
-0.226588,-0.0308672,2.517,2.52737
-0.218418,-0.0308672,2.517,2.52665
-0.210249,-0.0308672,2.517,2.52595
-0.202079,-0.0308672,2.517,2.52529
-0.193909,-0.0308672,2.517,2.52465
-0.18574,-0.0308672,2.517,2.52403
-0.17757,-0.0308672,2.517,2.52344
-0.169401,-0.0308672,2.517,2.52288
-0.161231,-0.0308672,2.517,2.52235
-0.153062,-0.0308672,2.517,2.52184
-0.144892,-0.0308672,2.517,2.52136
-0.136723,-0.0308672,2.517,2.5209
-0.128553,-0.0308672,2.517,2.52047
-0.120383,-0.0308672,2.517,2.52007
-0.112214,-0.0308672,2.517,2.51969
-0.104044,-0.0308672,2.517,2.51934
-0.0965985,-0.0311002,2.536,2.53803
-0.0883672,-0.0311002,2.536,2.53773
-0.080136,-0.0311002,2.536,2.53746
-0.0719048,-0.0311002,2.536,2.53721
-0.0636736,-0.0311002,2.536,2.53699
-0.0554423,-0.0311002,2.536,2.5368
-0.0472111,-0.0311002,2.536,2.53663
-0.0389799,-0.0311002,2.536,2.53649
-0.0307487,-0.0311002,2.536,2.53638
-0.0225174,-0.0311002,2.536,2.53629
-0.0142862,-0.0311002,2.536,2.53623
-0.00605498,-0.0311002,2.536,2.5362
0.00217625,-0.0311002,2.536,2.53619
0.0103295,-0.0308672,2.517,2.51721
0.0184991,-0.0308672,2.517,2.51726
0.0264779,-0.0306465,2.499,2.49933
0.034589,-0.0306465,2.499,2.49943
0.0427002,-0.0306465,2.499,2.49955
0.0504453,-0.0304257,2.481,2.4817
0.058498,-0.0304257,2.481,2.48188
0.0665507,-0.0304257,2.481,2.48208
0.0746034,-0.0304257,2.481,2.48231
0.0826561,-0.0304257,2.481,2.48256
0.0907089,-0.0304257,2.481,2.48284
0.0987616,-0.0304257,2.481,2.48315
0.106039,-0.030205,2.463,2.46547
0.114034,-0.030205,2.463,2.46582
0.122028,-0.030205,2.463,2.46621
0.130022,-0.030205,2.463,2.46661
0.138016,-0.030205,2.463,2.46705
0.147078,-0.0304257,2.481,2.48554
0.155131,-0.0304257,2.481,2.48603
0.163183,-0.0304257,2.481,2.48655
0.171236,-0.0304257,2.481,2.48709
0.179289,-0.0304257,2.481,2.48766
0.187341,-0.0304257,2.481,2.48825
0.195394,-0.0304257,2.481,2.48887
0.203447,-0.0304257,2.481,2.48951
0.213034,-0.0306465,2.499,2.50825
0.221145,-0.0306465,2.499,2.50895
0.229256,-0.0306465,2.499,2.50968
0.235658,-0.0304257,2.481,2.49235
0.24371,-0.0304257,2.481,2.49313
0.251763,-0.0304257,2.481,2.49393
0.259816,-0.0304257,2.481,2.49475
0.267868,-0.0304257,2.481,2.4956
0.275921,-0.0304257,2.481,2.49648
0.283974,-0.0304257,2.481,2.49738
0.292027,-0.0304257,2.481,2.49831
0.300079,-0.0304257,2.481,2.49927
0.308132,-0.0304257,2.481,2.50025
0.316185,-0.0304257,2.481,2.50125
0.324237,-0.0304257,2.481,2.50228
0.33229,-0.0304257,2.481,2.50334
0.340343,-0.0304257,2.481,2.50442
0.348396,-0.0304257,2.481,2.50553
0.356448,-0.0304257,2.481,2.50666
0.364501,-0.0304257,2.481,2.50782
0.372554,-0.0304257,2.481,2.509
0.380606,-0.0304257,2.481,2.51021
0.388659,-0.0304257,2.481,2.51144
0.39959,-0.0306465,2.499,2.53093
0.407701,-0.0306465,2.499,2.53222
0.415812,-0.0306465,2.499,2.53354
0.423923,-0.0306465,2.499,2.53489
0.432035,-0.0306465,2.499,2.53626
0.440146,-0.0306465,2.499,2.53765
0.448257,-0.0306465,2.499,2.53907
0.456368,-0.0306465,2.499,2.54051
0.467825,-0.0308672,2.517,2.56029
0.475994,-0.0308672,2.517,2.5618
0.484164,-0.0308672,2.517,2.56333
0.492333,-0.0308672,2.517,2.56488
0.500503,-0.0308672,2.517,2.56647
0.508672,-0.0308672,2.517,2.56807
0.520743,-0.0311002,2.536,2.5891
0.528975,-0.0311002,2.536,2.59077
0.537206,-0.0311002,2.536,2.59246
0.545437,-0.0311002,2.536,2.59418
0.553668,-0.0311002,2.536,2.59592
0.5619,-0.0311002,2.536,2.59769
0.570131,-0.0311002,2.536,2.59948
0.578362,-0.0311002,2.536,2.6013
0.586593,-0.0311002,2.536,2.60314
0.594824,-0.0311002,2.536,2.60501
0.603056,-0.0311002,2.536,2.6069
0.611287,-0.0311002,2.536,2.60882
0.619518,-0.0311002,2.536,2.61076
0.627749,-0.0311002,2.536,2.61273
0.635981,-0.0311002,2.536,2.61471
0.644212,-0.0311002,2.536,2.61673
0.652443,-0.0311002,2.536,2.61877
0.660674,-0.0311002,2.536,2.62083
0.668906,-0.0311002,2.536,2.62292
0.677137,-0.0311002,2.536,2.62503
0.685368,-0.0311002,2.536,2.62716
0.693599,-0.0311002,2.536,2.62932
0.70183,-0.0311002,2.536,2.63151
0.710062,-0.0311002,2.536,2.63371
0.718293,-0.0311002,2.536,2.63595
0.726524,-0.0311002,2.536,2.6382
0.734755,-0.0311002,2.536,2.64048
0.742987,-0.0311002,2.536,2.64278
0.751218,-0.0311002,2.536,2.64511
0.759449,-0.0311002,2.536,2.64746
0.76768,-0.0311002,2.536,2.64983
0.775912,-0.0311002,2.536,2.65223
0.784143,-0.0311002,2.536,2.65465
0.792374,-0.0311002,2.536,2.65709
0.800605,-0.0311002,2.536,2.65955
0.808836,-0.0311002,2.536,2.66204
0.817068,-0.0311002,2.536,2.66456
0.825299,-0.0311002,2.536,2.66709
0.83353,-0.0311002,2.536,2.66965
0.841761,-0.0311002,2.536,2.67223
0.849993,-0.0311002,2.536,2.67484
0.858224,-0.0311002,2.536,2.67746
0.866455,-0.0311002,2.536,2.68011
0.874686,-0.0311002,2.536,2.68279
0.882918,-0.0311002,2.536,2.68548
0.884472,-0.0308672,2.517,2.66806
0.892642,-0.0308672,2.517,2.67078
0.900811,-0.0308672,2.517,2.67352
0.90248,-0.0306465,2.499,2.65714
0.910591,-0.0306465,2.499,2.65991
0.918703,-0.0306465,2.499,2.6627
0.920138,-0.0304257,2.481,2.64631
0.921457,-0.030205,2.463,2.6299
0.929451,-0.030205,2.463,2.63271
0.937445,-0.030205,2.463,2.63554
0.945439,-0.030205,2.463,2.6384
0.953434,-0.030205,2.463,2.64127
0.954402,-0.0299843,2.445,2.62484
0.962338,-0.0299843,2.445,2.62774
0.970273,-0.0299843,2.445,2.63066
0.978209,-0.0299843,2.445,2.63359
0.986145,-0.0299843,2.445,2.63655
0.994081,-0.0299843,2.445,2.63953
1.00202,-0.0299843,2.445,2.64253
1.00995,-0.0299843,2.445,2.64555
1.03288,-0.0304257,2.481,2.68759
1.04848,-0.0306465,2.499,2.71021
1.05659,-0.0306465,2.499,2.71336
1.08047,-0.0311002,2.536,2.75675
1.10501,-0.0315662,2.574,2.80134
1.11337,-0.0315662,2.574,2.80465
1.14743,-0.0322898,2.633,2.87234
1.17442,-0.0328049,2.675,2.92164
1.20168,-0.0333199,2.717,2.97106
1.21049,-0.0333199,2.717,2.97464
1.23906,-0.0338595,2.761,3.02647
1.26836,-0.0344114,2.806,3.07954
1.27747,-0.0344114,2.806,3.0833
1.28658,-0.0344114,2.806,3.08709
1.31739,-0.0349878,2.853,3.14266
1.32665,-0.0349878,2.853,3.14656
1.34714,-0.0352821,2.877,3.17698
1.35648,-0.0352821,2.877,3.18095
1.36582,-0.0352821,2.877,3.18494
1.37516,-0.0352821,2.877,3.18896
1.3845,-0.0352821,2.877,3.19299
1.39384,-0.0352821,2.877,3.19705
1.40317,-0.0352821,2.877,3.20114
1.42429,-0.0355764,2.901,3.23198
1.43371,-0.0355764,2.901,3.23614
1.44313,-0.0355764,2.901,3.24032
1.46506,-0.035883,2.926,3.27249
1.47456,-0.035883,2.926,3.27675
1.49673,-0.0361896,2.951,3.30907
1.50631,-0.0361896,2.951,3.31341
1.52925,-0.0365084,2.977,3.34701
1.56631,-0.0371584,3.03,3.4111
1.57614,-0.0371584,3.03,3.41563
1.61424,-0.0378206,3.084,3.48113
1.639,-0.038164,3.112,3.51743
1.6491,-0.038164,3.112,3.52215
1.67466,-0.0385196,3.141,3.55975
1.70041,-0.0388753,3.17,3.59747
1.72635,-0.0392309,3.199,3.6353
1.73673,-0.0392309,3.199,3.64024
1.76405,-0.0396111,3.23,3.68053
1.77453,-0.0396111,3.23,3.68557
1.78501,-0.0396111,3.23,3.69063
1.7955,-0.0396111,3.23,3.69571
1.80598,-0.0396111,3.23,3.70082
1.81647,-0.0396111,3.23,3.70594
1.80941,-0.0392309,3.199,3.67548
1.8198,-0.0392309,3.199,3.6806
1.83018,-0.0392309,3.199,3.68574
1.84056,-0.0392309,3.199,3.69091
1.85095,-0.0392309,3.199,3.6961
1.86133,-0.0392309,3.199,3.70131
1.85475,-0.0388753,3.17,3.67294
1.86504,-0.0388753,3.17,3.67815
1.87532,-0.0388753,3.17,3.68338
1.86836,-0.0385196,3.141,3.65488
1.86121,-0.038164,3.112,3.62631
1.87131,-0.038164,3.112,3.6315
1.86449,-0.0378206,3.084,3.604
1.85809,-0.0374895,3.057,3.57759
1.86801,-0.0374895,3.057,3.58275
1.87793,-0.0374895,3.057,3.58794
1.87118,-0.0371584,3.03,3.5614
1.88101,-0.0371584,3.03,3.56658
1.874,-0.0368273,3.003,3.53995
1.86744,-0.0365084,2.977,3.51443
1.86071,-0.0361896,2.951,3.48883
1.87028,-0.0361896,2.951,3.49395
1.84801,-0.0355764,2.901,3.4398
1.82669,-0.0349878,2.853,3.38787
1.83595,-0.0349878,2.853,3.39287
1.81482,-0.0344114,2.806,3.34191
1.80897,-0.0341293,2.783,3.31943
1.81801,-0.0341293,2.783,3.32437
1.78371,-0.0333199,2.717,3.25036
1.76482,-0.0328049,2.675,3.20489
1.7735,-0.0328049,2.675,3.20967
1.7542,-0.0322898,2.633,3.16401
1.72325,-0.0315662,2.574,3.09775
1.7316,-0.0315662,2.574,3.10241
1.71427,-0.0311002,2.536,3.06121
1.7096,-0.0308672,2.517,3.04285
-1.85574,-0.0241249,2.675,3.25576
-1.83255,-0.0239355,2.654,3.2253
-1.82394,-0.0239355,2.654,3.22041
-1.80096,-0.0237461,2.633,3.1901
-1.7788,-0.0235658,2.613,3.16108
-1.77032,-0.0235658,2.613,3.15632
-1.74835,-0.0233854,2.593,3.12745
-1.72719,-0.023214,2.574,3.09987
-1.71883,-0.023214,2.574,3.09522
-1.71048,-0.023214,2.574,3.09059
-1.71469,-0.0233854,2.593,3.10875
-1.70627,-0.0233854,2.593,3.10412
-1.69785,-0.0233854,2.593,3.0995
-1.68944,-0.0233854,2.593,3.0949
-1.68102,-0.0233854,2.593,3.09031
-1.67261,-0.0233854,2.593,3.08574
-1.66419,-0.0233854,2.593,3.08119
-1.66854,-0.0235658,2.613,3.10038
-1.66006,-0.0235658,2.613,3.09583
-1.65158,-0.0235658,2.613,3.09129
-1.65568,-0.0237461,2.633,3.11039
-1.66027,-0.0239355,2.654,3.13062
-1.65165,-0.0239355,2.654,3.12606
-1.64304,-0.0239355,2.654,3.12152
-1.64736,-0.0241249,2.675,3.14165
-1.65154,-0.0243143,2.696,3.16174
-1.64279,-0.0243143,2.696,3.15718
-1.64677,-0.0245037,2.717,3.17719
-1.65121,-0.0247021,2.739,3.19832
-1.64232,-0.0247021,2.739,3.19374
-1.64655,-0.0249005,2.761,3.21479
-1.65064,-0.0250989,2.783,3.23579
-1.65517,-0.0253064,2.806,3.25789
-1.64606,-0.0253064,2.806,3.25328
-1.63696,-0.0253064,2.806,3.24868
-1.62785,-0.0253064,2.806,3.2441
-1.61874,-0.0253064,2.806,3.23954
-1.63659,-0.0257302,2.853,3.28918
-1.62733,-0.0257302,2.853,3.28458
-1.61807,-0.0257302,2.853,3.28001
nan,nan,nan,NaN
nan,nan,nan,NaN
nan,nan,nan,NaN
nan,nan,nan,NaN
nan,nan,nan,NaN
nan,nan,nan,NaN
-1.52767,-0.0253064,2.806,3.195
-1.51856,-0.0253064,2.806,3.19066
-1.50945,-0.0253064,2.806,3.18633
-1.50034,-0.0253064,2.806,3.18203
-1.47901,-0.0250989,2.783,3.1517
-1.46998,-0.0250989,2.783,3.14747
-1.46095,-0.0250989,2.783,3.14326
-1.44044,-0.0249005,2.761,3.11426
-1.42007,-0.0247021,2.739,3.08534
-1.41118,-0.0247021,2.739,3.08126
-1.39102,-0.0245037,2.717,3.05248
-1.36084,-0.0241249,2.675,3.00135
-1.35216,-0.0241249,2.675,2.99742
-1.32238,-0.0237461,2.633,2.94651
-1.29387,-0.0233854,2.593,2.89798
-1.28546,-0.0233854,2.593,2.89424
-1.25833,-0.0230427,2.555,2.84815
-1.24074,-0.0228713,2.536,2.82334
-1.23251,-0.0228713,2.536,2.81973
-1.2151,-0.0227,2.517,2.79505
-1.1983,-0.0225376,2.499,2.77154
-1.19019,-0.0225376,2.499,2.76804
-1.18208,-0.0225376,2.499,2.76457
-1.17397,-0.0225376,2.499,2.76111
-1.15746,-0.0223753,2.481,2.73781
-1.14941,-0.0223753,2.481,2.73441
-1.14136,-0.0223753,2.481,2.73104
-1.11686,-0.0220506,2.445,2.6881
-1.10892,-0.0220506,2.445,2.68481
-1.10099,-0.0220506,2.445,2.68155
-1.09305,-0.0220506,2.445,2.6783
-1.08512,-0.0220506,2.445,2.67507
-1.06969,-0.0218973,2.428,2.65328
-1.06181,-0.0218973,2.428,2.65011
-1.05393,-0.0218973,2.428,2.64697
-1.04605,-0.0218973,2.428,2.64384
-1.03817,-0.0218973,2.428,2.64073
-1.02307,-0.021744,2.411,2.61917
-1.01525,-0.021744,2.411,2.61613
-1.00742,-0.021744,2.411,2.6131
-0.999596,-0.021744,2.411,2.61009
-0.99177,-0.021744,2.411,2.60711
-0.977007,-0.0215907,2.394,2.58578
-0.969237,-0.0215907,2.394,2.58285
-0.961466,-0.0215907,2.394,2.57995
-0.953696,-0.0215907,2.394,2.57706
-0.939209,-0.0214374,2.377,2.55592
-0.931494,-0.0214374,2.377,2.55309
-0.923778,-0.0214374,2.377,2.55029
-0.916063,-0.0214374,2.377,2.5475
-0.908348,-0.0214374,2.377,2.54474
-0.900633,-0.0214374,2.377,2.54199
-0.892918,-0.0214374,2.377,2.53927
-0.885203,-0.0214374,2.377,2.53657
-0.877488,-0.0214374,2.377,2.53389
-0.869772,-0.0214374,2.377,2.53122
-0.862057,-0.0214374,2.377,2.52858
-0.854342,-0.0214374,2.377,2.52596
-0.846627,-0.0214374,2.377,2.52336
-0.838912,-0.0214374,2.377,2.52079
-0.831197,-0.0214374,2.377,2.51823
-0.829371,-0.0215907,2.394,2.53368
-0.821601,-0.0215907,2.394,2.53115
-0.81383,-0.0215907,2.394,2.52864
-0.80606,-0.0215907,2.394,2.52615
-0.79829,-0.0215907,2.394,2.52368
-0.796133,-0.021744,2.411,2.53914
-0.788307,-0.021744,2.411,2.5367
-0.785985,-0.0218973,2.428,2.55214
-0.778104,-0.0218973,2.428,2.54973
-0.775616,-0.0220506,2.445,2.56517
-0.767681,-0.0220506,2.445,2.56278
-0.759745,-0.0220506,2.445,2.56041
-0.757344,-0.022213,2.463,2.5769
-0.749349,-0.022213,2.463,2.57457
-0.741355,-0.022213,2.463,2.57225
-0.73872,-0.0223753,2.481,2.58874
-0.730668,-0.0223753,2.481,2.58645
-0.722615,-0.0223753,2.481,2.58419
-0.714562,-0.0223753,2.481,2.58195
-0.706509,-0.0223753,2.481,2.57973
-0.703524,-0.0225376,2.499,2.59624
-0.690404,-0.0223753,2.481,2.57537
-0.682351,-0.0223753,2.481,2.57322
-0.674299,-0.0223753,2.481,2.5711
-0.666246,-0.0223753,2.481,2.569
-0.658193,-0.0223753,2.481,2.56692
-0.65014,-0.0223753,2.481,2.56487
-0.642088,-0.0223753,2.481,2.56284
-0.634035,-0.0223753,2.481,2.56083
-0.621441,-0.022213,2.463,2.54029
-0.613446,-0.022213,2.463,2.53834
-0.605452,-0.022213,2.463,2.53642
-0.597458,-0.022213,2.463,2.53453
-0.589464,-0.022213,2.463,2.53265
-0.581469,-0.022213,2.463,2.5308
-0.573475,-0.022213,2.463,2.52898
-0.565481,-0.022213,2.463,2.52718
-0.557486,-0.022213,2.463,2.5254
-0.549492,-0.022213,2.463,2.52365
-0.541498,-0.022213,2.463,2.52192
-0.533504,-0.022213,2.463,2.52022
-0.525509,-0.022213,2.463,2.51854
-0.517515,-0.022213,2.463,2.51688
-0.509521,-0.022213,2.463,2.51525
-0.501526,-0.022213,2.463,2.51364
-0.493532,-0.022213,2.463,2.51206
-0.489086,-0.0223753,2.481,2.52885
-0.481034,-0.0223753,2.481,2.5273
-0.472981,-0.0223753,2.481,2.52578
-0.464928,-0.0223753,2.481,2.52429
-0.456875,-0.0223753,2.481,2.52282
-0.448823,-0.0223753,2.481,2.52137
-0.44077,-0.0223753,2.481,2.51995
-0.435857,-0.0225376,2.499,2.53682
-0.427746,-0.0225376,2.499,2.53544
-0.419634,-0.0225376,2.499,2.53409
-0.414487,-0.0227,2.517,2.551
-0.406318,-0.0227,2.517,2.54969
-0.398148,-0.0227,2.517,2.5484
-0.389979,-0.0227,2.517,2.54713
-0.381809,-0.0227,2.517,2.5459
-0.37364,-0.0227,2.517,2.54468
-0.368229,-0.0228713,2.536,2.5627
-0.359998,-0.0228713,2.536,2.56153
-0.351766,-0.0228713,2.536,2.56038
-0.343535,-0.0228713,2.536,2.55926
-0.335304,-0.0228713,2.536,2.55817
-0.327073,-0.0228713,2.536,2.55711
-0.318842,-0.0228713,2.536,2.55607
-0.31061,-0.0228713,2.536,2.55505
-0.302379,-0.0228713,2.536,2.55407
-0.294148,-0.0228713,2.536,2.5531
-0.285917,-0.0228713,2.536,2.55217
-0.277685,-0.0228713,2.536,2.55126
-0.269454,-0.0228713,2.536,2.55038
-0.259266,-0.0227,2.517,2.53042
-0.251096,-0.0227,2.517,2.5296
-0.242927,-0.0227,2.517,2.5288
-0.234757,-0.0227,2.517,2.52803
-0.226588,-0.0227,2.517,2.52728
-0.218418,-0.0227,2.517,2.52656
-0.210249,-0.0227,2.517,2.52587
-0.202079,-0.0227,2.517,2.5252
-0.193909,-0.0227,2.517,2.52456
-0.18574,-0.0227,2.517,2.52395
-0.17757,-0.0227,2.517,2.52336
-0.169401,-0.0227,2.517,2.5228
-0.161231,-0.0227,2.517,2.52226
-0.153062,-0.0227,2.517,2.52175
-0.144892,-0.0227,2.517,2.52127
-0.136723,-0.0227,2.517,2.52081
-0.128553,-0.0227,2.517,2.52038
-0.120383,-0.0227,2.517,2.51998
-0.112214,-0.0227,2.517,2.5196
-0.104044,-0.0227,2.517,2.51925
-0.0965985,-0.0228713,2.536,2.53794
-0.0883672,-0.0228713,2.536,2.53764
-0.080136,-0.0228713,2.536,2.53737
-0.0719048,-0.0228713,2.536,2.53712
-0.0636736,-0.0228713,2.536,2.5369
-0.0554423,-0.0228713,2.536,2.53671
-0.0475648,-0.0230427,2.555,2.55555
-0.0392719,-0.0230427,2.555,2.55541
-0.0307487,-0.0228713,2.536,2.53629
-0.0225174,-0.0228713,2.536,2.5362
-0.0143932,-0.0230427,2.555,2.55514
-0.00605498,-0.0228713,2.536,2.53611
0.00217625,-0.0228713,2.536,2.5361
0.0104075,-0.0228713,2.536,2.53612
0.0186387,-0.0228713,2.536,2.53617
0.0266686,-0.0227,2.517,2.51724
0.034589,-0.0225376,2.499,2.49934
0.0427002,-0.0225376,2.499,2.49947
0.0508113,-0.0225376,2.499,2.49962
0.0589224,-0.0225376,2.499,2.4998
0.0670336,-0.0225376,2.499,2.5
0.0751447,-0.0225376,2.499,2.50023
0.0826561,-0.0223753,2.481,2.48248
0.0907089,-0.0223753,2.481,2.48276
0.0987616,-0.0223753,2.481,2.48307
0.106814,-0.0223753,2.481,2.4834
0.114867,-0.0223753,2.481,2.48376
0.12292,-0.0223753,2.481,2.48414
0.130972,-0.0223753,2.481,2.48456
0.139025,-0.0223753,2.481,2.48499
0.148145,-0.0225376,2.499,2.50349
0.156256,-0.0225376,2.499,2.50398
0.164367,-0.0225376,2.499,2.5045
0.172478,-0.0225376,2.499,2.50505
0.180589,-0.0225376,2.499,2.50562
0.188701,-0.0225376,2.499,2.50622
0.196812,-0.0225376,2.499,2.50684
0.204923,-0.0225376,2.499,2.50749
0.213034,-0.0225376,2.499,2.50817
0.221145,-0.0225376,2.499,2.50887
0.229256,-0.0225376,2.499,2.5096
0.237367,-0.0225376,2.499,2.51035
0.245479,-0.0225376,2.499,2.51113
0.25359,-0.0225376,2.499,2.51193
0.261701,-0.0225376,2.499,2.51277
0.269812,-0.0225376,2.499,2.51362
0.277923,-0.0225376,2.499,2.51451
0.283974,-0.0223753,2.481,2.4973
0.292027,-0.0223753,2.481,2.49823
0.300079,-0.0223753,2.481,2.49918
0.308132,-0.0223753,2.481,2.50016
0.316185,-0.0223753,2.481,2.50117
0.324237,-0.0223753,2.481,2.5022
0.33229,-0.0223753,2.481,2.50325
0.340343,-0.0223753,2.481,2.50434
0.348396,-0.0223753,2.481,2.50544
0.356448,-0.0223753,2.481,2.50657
0.364501,-0.0223753,2.481,2.50773
0.372554,-0.0223753,2.481,2.50892
0.380606,-0.0223753,2.481,2.51012
0.388659,-0.0223753,2.481,2.51136
0.39959,-0.0225376,2.499,2.53085
0.407701,-0.0225376,2.499,2.53214
0.415812,-0.0225376,2.499,2.53346
0.423923,-0.0225376,2.499,2.5348
0.432035,-0.0225376,2.499,2.53617
0.440146,-0.0225376,2.499,2.53757
0.448257,-0.0225376,2.499,2.53898
0.456368,-0.0225376,2.499,2.54043
0.467825,-0.0227,2.517,2.56021
0.475994,-0.0227,2.517,2.56171
0.484164,-0.0227,2.517,2.56324
0.492333,-0.0227,2.517,2.5648
0.500503,-0.0227,2.517,2.56638
0.508672,-0.0227,2.517,2.56799
0.520743,-0.0228713,2.536,2.58901
0.528975,-0.0228713,2.536,2.59068
0.537206,-0.0228713,2.536,2.59238
0.545437,-0.0228713,2.536,2.59409
0.553668,-0.0228713,2.536,2.59584
0.5619,-0.0228713,2.536,2.5976
0.570131,-0.0228713,2.536,2.5994
0.578362,-0.0228713,2.536,2.60122
0.586593,-0.0228713,2.536,2.60306
0.594824,-0.0228713,2.536,2.60493
0.603056,-0.0228713,2.536,2.60682
0.611287,-0.0228713,2.536,2.60873
0.619518,-0.0228713,2.536,2.61067
0.627749,-0.0228713,2.536,2.61264
0.635981,-0.0228713,2.536,2.61463
0.644212,-0.0228713,2.536,2.61664
0.652443,-0.0228713,2.536,2.61868
0.660674,-0.0228713,2.536,2.62075
0.668906,-0.0228713,2.536,2.62283
0.677137,-0.0228713,2.536,2.62494
0.685368,-0.0228713,2.536,2.62708
0.693599,-0.0228713,2.536,2.62924
0.70183,-0.0228713,2.536,2.63142
0.710062,-0.0228713,2.536,2.63363
0.718293,-0.0228713,2.536,2.63586
0.726524,-0.0228713,2.536,2.63812
0.734755,-0.0228713,2.536,2.64039
0.742987,-0.0228713,2.536,2.6427
0.751218,-0.0228713,2.536,2.64502
0.759449,-0.0228713,2.536,2.64737
0.76768,-0.0228713,2.536,2.64975
0.775912,-0.0228713,2.536,2.65214
0.784143,-0.0228713,2.536,2.65456
0.792374,-0.0228713,2.536,2.657
0.800605,-0.0228713,2.536,2.65947
0.808836,-0.0228713,2.536,2.66196
0.817068,-0.0228713,2.536,2.66447
0.825299,-0.0228713,2.536,2.66701
0.83353,-0.0228713,2.536,2.66957
0.841761,-0.0228713,2.536,2.67215
0.856361,-0.0230427,2.555,2.69479
0.858224,-0.0228713,2.536,2.67738
0.866455,-0.0228713,2.536,2.68003
0.874686,-0.0228713,2.536,2.6827
0.882918,-0.0228713,2.536,2.6854
0.884472,-0.0227,2.517,2.66798
0.892642,-0.0227,2.517,2.6707
0.900811,-0.0227,2.517,2.67344
0.90248,-0.0225376,2.499,2.65706
0.910591,-0.0225376,2.499,2.65983
0.918703,-0.0225376,2.499,2.66262
0.920138,-0.0223753,2.481,2.64623
0.928191,-0.0223753,2.481,2.64904
0.936243,-0.0223753,2.481,2.65187
0.937445,-0.022213,2.463,2.63546
0.945439,-0.022213,2.463,2.63832
0.953434,-0.022213,2.463,2.64119
0.961428,-0.022213,2.463,2.64409
0.962338,-0.0220506,2.445,2.62766
0.970273,-0.0220506,2.445,2.63058
0.978209,-0.0220506,2.445,2.63352
0.986145,-0.0220506,2.445,2.63647
0.994081,-0.0220506,2.445,2.63945
1.00939,-0.022213,2.463,2.66191
1.01739,-0.022213,2.463,2.66495
1.03288,-0.0223753,2.481,2.68751
1.04848,-0.0225376,2.499,2.71013
1.05659,-0.0225376,2.499,2.71328
1.08047,-0.0228713,2.536,2.75667
1.09685,-0.0230427,2.555,2.78058
1.10515,-0.0230427,2.555,2.78387
1.13872,-0.0235658,2.613,2.85044
1.1652,-0.0239355,2.654,2.89862
1.20168,-0.0245037,2.717,2.97098
1.21049,-0.0245037,2.717,2.97456
1.22919,-0.0247021,2.739,3.00227
1.24802,-0.0249005,2.761,3.03007
1.25698,-0.0249005,2.761,3.03377
1.28658,-0.0253064,2.806,3.087
1.3063,-0.0255138,2.829,3.11614
1.31549,-0.0255138,2.829,3.12
1.33591,-0.0257302,2.853,3.15038
1.34517,-0.0257302,2.853,3.15432
1.35443,-0.0257302,2.853,3.15828
1.36369,-0.0257302,2.853,3.16226
1.3845,-0.0259467,2.877,3.1929
1.39384,-0.0259467,2.877,3.19696
1.40317,-0.0259467,2.877,3.20105
1.41251,-0.0259467,2.877,3.20515
1.43371,-0.0261631,2.901,3.23605
1.44313,-0.0261631,2.901,3.24023
1.45254,-0.0261631,2.901,3.24444
1.47456,-0.0263886,2.926,3.27666
1.49673,-0.0266141,2.951,3.30898
1.50631,-0.0266141,2.951,3.31332
1.52925,-0.0268486,2.977,3.34692
1.56631,-0.0273265,3.03,3.41101
1.57614,-0.0273265,3.03,3.41553
1.61424,-0.0278136,3.084,3.48103
1.62425,-0.0278136,3.084,3.48569
1.63426,-0.0278136,3.084,3.49036
1.67466,-0.0283276,3.141,3.55966
1.68485,-0.0283276,3.141,3.56447
1.7107,-0.0285892,3.17,3.60225
1.72099,-0.0285892,3.17,3.60715
1.74712,-0.0288507,3.199,3.64511
1.77453,-0.0291303,3.23,3.68547
1.78501,-0.0291303,3.23,3.69053
1.7955,-0.0291303,3.23,3.69561
1.80598,-0.0291303,3.23,3.70072
1.81647,-0.0291303,3.23,3.70585
1.80941,-0.0288507,3.199,3.67538
1.8198,-0.0288507,3.199,3.6805
1.83018,-0.0288507,3.199,3.68565
1.84056,-0.0288507,3.199,3.69081
1.85095,-0.0288507,3.199,3.696
1.86133,-0.0288507,3.199,3.70121
1.85475,-0.0285892,3.17,3.67285
1.86504,-0.0285892,3.17,3.67805
1.87532,-0.0285892,3.17,3.68328
1.86836,-0.0283276,3.141,3.65479
1.86121,-0.0280661,3.112,3.62622
1.87131,-0.0280661,3.112,3.63141
1.86449,-0.0278136,3.084,3.60391
1.85809,-0.02757,3.057,3.5775
1.86801,-0.02757,3.057,3.58266
1.87793,-0.02757,3.057,3.58785
1.87118,-0.0273265,3.03,3.56131
1.88101,-0.0273265,3.03,3.56649
1.874,-0.027083,3.003,3.53986
1.86744,-0.0268486,2.977,3.51434
1.86071,-0.0266141,2.951,3.48874
1.87028,-0.0266141,2.951,3.49386
1.84801,-0.0261631,2.901,3.43971
1.82669,-0.0257302,2.853,3.38778
1.83595,-0.0257302,2.853,3.39279
1.81482,-0.0253064,2.806,3.34183
1.80897,-0.0250989,2.783,3.31935
1.81801,-0.0250989,2.783,3.32428
1.78371,-0.0245037,2.717,3.25028
1.76482,-0.0241249,2.675,3.20481
1.7735,-0.0241249,2.675,3.2096
1.7542,-0.0237461,2.633,3.16393
1.72325,-0.023214,2.574,3.09768
1.7316,-0.023214,2.574,3.10233
1.71427,-0.0228713,2.536,3.06113
1.7096,-0.0227,2.517,3.04278
-1.85574,-0.015445,2.675,3.25571
-1.83255,-0.0153237,2.654,3.22524
-1.82394,-0.0153237,2.654,3.22036
-1.80096,-0.0152025,2.633,3.19004
-1.7788,-0.015087,2.613,3.16103
-1.77032,-0.015087,2.613,3.15627
-1.74835,-0.0149715,2.593,3.1274
-1.72719,-0.0148618,2.574,3.09982
-1.71883,-0.0148618,2.574,3.09517
-1.71048,-0.0148618,2.574,3.09054
-1.70212,-0.0148618,2.574,3.08592
-1.70627,-0.0149715,2.593,3.10407
-1.69785,-0.0149715,2.593,3.09945
-1.68944,-0.0149715,2.593,3.09485
-1.68102,-0.0149715,2.593,3.09026
-1.67261,-0.0149715,2.593,3.08569
-1.66419,-0.0149715,2.593,3.08114
-1.65577,-0.0149715,2.593,3.0766
-1.64736,-0.0149715,2.593,3.07208
-1.63894,-0.0149715,2.593,3.06757
-1.6431,-0.015087,2.613,3.08671
-1.64713,-0.0152025,2.633,3.10579
-1.63858,-0.0152025,2.633,3.10127
-1.64304,-0.0153237,2.654,3.12146
-1.63443,-0.0153237,2.654,3.11694
-1.63868,-0.015445,2.675,3.13706
-1.62999,-0.015445,2.675,3.13253
-1.63404,-0.0155662,2.696,3.15258
-1.65121,-0.0158145,2.739,3.19826
-1.64232,-0.0158145,2.739,3.19368
-1.63343,-0.0158145,2.739,3.18912
-1.65064,-0.0160686,2.783,3.23573
-1.6416,-0.0160686,2.783,3.23113
-1.63257,-0.0160686,2.783,3.22655
-1.63696,-0.0162014,2.806,3.24862
-1.62785,-0.0162014,2.806,3.24404
-1.61874,-0.0162014,2.806,3.23948
-1.60963,-0.0162014,2.806,3.23494
-1.60053,-0.0162014,2.806,3.23042
-1.59142,-0.0162014,2.806,3.22591
-1.58231,-0.0162014,2.806,3.22143
-1.56031,-0.0160686,2.783,3.1906
-1.55128,-0.0160686,2.783,3.18619
-1.53005,-0.0159415,2.761,3.15665
-1.52109,-0.0159415,2.761,3.15231
-1.51213,-0.0159415,2.761,3.148
-1.50317,-0.0159415,2.761,3.14371
-1.4942,-0.0159415,2.761,3.13943
-1.49708,-0.0160686,2.783,3.16016
-1.47628,-0.0159415,2.761,3.13094
-1.46732,-0.0159415,2.761,3.12672
-1.45836,-0.0159415,2.761,3.12253
-1.4494,-0.0159415,2.761,3.11835
-1.42896,-0.0158145,2.739,3.08938
-1.42007,-0.0158145,2.739,3.08528
-1.41118,-0.0158145,2.739,3.0812
-1.39102,-0.0156875,2.717,3.05242
-1.35016,-0.0153237,2.654,2.97773
-1.34154,-0.0153237,2.654,2.97383
-1.31234,-0.015087,2.613,2.92408
-1.28439,-0.0148618,2.574,2.87669
-1.27604,-0.0148618,2.574,2.87297
-1.24897,-0.0146424,2.536,2.82691
-1.23144,-0.0145327,2.517,2.80213
-1.22327,-0.0145327,2.517,2.79855
-1.19772,-0.0143249,2.481,2.75502
-1.18967,-0.0143249,2.481,2.75152
-1.18162,-0.0143249,2.481,2.74805
-1.16505,-0.0142209,2.463,2.72469
-1.15706,-0.0142209,2.463,2.72128
-1.14067,-0.014117,2.445,2.69803
-1.13273,-0.014117,2.445,2.69468
-1.12479,-0.014117,2.445,2.69135
-1.11686,-0.014117,2.445,2.68805
-1.10892,-0.014117,2.445,2.68476
-1.09333,-0.0140188,2.428,2.66285
-1.08545,-0.0140188,2.428,2.65962
-1.07757,-0.0140188,2.428,2.65641
-1.06969,-0.0140188,2.428,2.65323
-1.06181,-0.0140188,2.428,2.65006
-1.05393,-0.0140188,2.428,2.64691
-1.04605,-0.0140188,2.428,2.64378
-1.0309,-0.0139207,2.411,2.62219
-1.02307,-0.0139207,2.411,2.61912
-1.01525,-0.0139207,2.411,2.61607
-1.00742,-0.0139207,2.411,2.61305
-0.992548,-0.0138225,2.394,2.59164
-0.984778,-0.0138225,2.394,2.58867
-0.977007,-0.0138225,2.394,2.58572
-0.969237,-0.0138225,2.394,2.5828
-0.961466,-0.0138225,2.394,2.57989
-0.946924,-0.0137244,2.377,2.55871
-0.939209,-0.0137244,2.377,2.55586
-0.931494,-0.0137244,2.377,2.55304
-0.923778,-0.0137244,2.377,2.55023
-0.916063,-0.0137244,2.377,2.54745
-0.908348,-0.0137244,2.377,2.54468
-0.900633,-0.0137244,2.377,2.54194
-0.892918,-0.0137244,2.377,2.53922
-0.885203,-0.0137244,2.377,2.53651
-0.877488,-0.0137244,2.377,2.53383
-0.869772,-0.0137244,2.377,2.53117
-0.862057,-0.0137244,2.377,2.52853
-0.854342,-0.0137244,2.377,2.52591
-0.846627,-0.0137244,2.377,2.52331
-0.838912,-0.0137244,2.377,2.52073
-0.831197,-0.0137244,2.377,2.51818
-0.829371,-0.0138225,2.394,2.53363
-0.821601,-0.0138225,2.394,2.5311
-0.81383,-0.0138225,2.394,2.52859
