-1.38492,0.238092,2.428,2.80533
-1.35775,0.234758,2.394,2.76222
-1.3404,0.233091,2.377,2.73882
-1.33268,0.233091,2.377,2.73505
-1.32497,0.233091,2.377,2.7313
-1.31725,0.233091,2.377,2.72757
-1.30954,0.233091,2.377,2.72385
-1.32044,0.236425,2.411,2.75905
-1.31262,0.236425,2.411,2.75532
-1.30479,0.236425,2.411,2.7516
-1.31526,0.239759,2.445,2.78665
-1.30732,0.239759,2.445,2.78291
-1.30895,0.241524,2.463,2.79965
-1.31997,0.245054,2.499,2.83679
-1.33128,0.248683,2.536,2.87497
-1.32305,0.248683,2.536,2.87117
-1.33452,0.252409,2.574,2.91035
-1.33596,0.254272,2.593,2.92798
-1.32754,0.254272,2.593,2.92415
-1.33947,0.258194,2.633,2.96539
-1.34154,0.260254,2.654,2.98516
-1.34347,0.262313,2.675,3.00489
-1.33479,0.262313,2.675,3.00102
-1.32611,0.262313,2.675,2.99717
-1.31743,0.262313,2.675,2.99333
-1.29847,0.260254,2.654,2.96605
-1.26993,0.256233,2.613,2.91653
-1.26145,0.256233,2.613,2.91285
-1.24338,0.254272,2.593,2.88692
-1.21686,0.250546,2.555,2.84105
-1.20857,0.250546,2.555,2.83751
-1.19135,0.248683,2.536,2.81291
-1.16586,0.245054,2.499,2.76844
-1.15775,0.245054,2.499,2.76504
-1.13308,0.241524,2.463,2.72187
-1.10909,0.238092,2.428,2.67992
-1.0935,0.236425,2.411,2.65792
-1.08568,0.236425,2.411,2.65471
-1.07025,0.234758,2.394,2.63283
-1.06248,0.234758,2.394,2.62968
-1.05471,0.234758,2.394,2.62655
-1.03951,0.233091,2.377,2.60481
-1.03179,0.233091,2.377,2.60174
-1.02408,0.233091,2.377,2.59869
-1.01636,0.233091,2.377,2.59566
-1.00865,0.233091,2.377,2.59265
-1.00093,0.233091,2.377,2.58966
-0.993215,0.233091,2.377,2.58668
-0.9855,0.233091,2.377,2.58373
-0.984778,0.234758,2.394,2.59926
-0.977007,0.234758,2.394,2.59632
-0.969237,0.234758,2.394,2.59341
-0.968294,0.236425,2.411,2.60891
-0.960468,0.236425,2.411,2.60602
-0.952643,0.236425,2.411,2.60314
-0.944817,0.236425,2.411,2.60029
-0.936992,0.236425,2.411,2.59745
-0.929166,0.236425,2.411,2.59464
-0.921341,0.236425,2.411,2.59185
-0.913515,0.236425,2.411,2.58908
-0.90569,0.236425,2.411,2.58633
-0.897864,0.236425,2.411,2.5836
-0.890039,0.236425,2.411,2.58089
-0.882213,0.236425,2.411,2.5782
-0.874388,0.236425,2.411,2.57553
-0.866562,0.236425,2.411,2.57289
-0.858737,0.236425,2.411,2.57026
-0.850911,0.236425,2.411,2.56766
-0.843086,0.236425,2.411,2.56508
-0.83526,0.236425,2.411,2.56251
-0.827435,0.236425,2.411,2.55997
-0.819609,0.236425,2.411,2.55746
-0.817508,0.238092,2.428,2.57297
-0.809627,0.238092,2.428,2.57048
-0.801746,0.238092,2.428,2.56801
-0.799424,0.239759,2.445,2.58352
-0.791488,0.239759,2.445,2.58108
-0.783552,0.239759,2.445,2.57866
-0.775616,0.239759,2.445,2.57626
-0.773332,0.241524,2.463,2.59283
-0.765338,0.241524,2.463,2.59045
-0.757344,0.241524,2.463,2.5881
-0.749349,0.241524,2.463,2.58577
-0.741355,0.241524,2.463,2.58347
-0.733361,0.241524,2.463,2.58119
-0.725366,0.241524,2.463,2.57893
-0.717372,0.241524,2.463,2.57669
-0.709378,0.241524,2.463,2.57447
-0.701384,0.241524,2.463,2.57228
-0.693389,0.241524,2.463,2.57012
-0.685395,0.241524,2.463,2.56797
-0.677401,0.241524,2.463,2.56585
-0.669406,0.241524,2.463,2.56375
-0.661412,0.241524,2.463,2.56167
-0.653418,0.241524,2.463,2.55962
-0.645424,0.241524,2.463,2.55759
-0.637429,0.241524,2.463,2.55559
-0.629435,0.241524,2.463,2.5536
-0.616899,0.239759,2.445,2.533
-0.608963,0.239759,2.445,2.53108
-0.601027,0.239759,2.445,2.52918
-0.593092,0.239759,2.445,2.5273
-0.585156,0.239759,2.445,2.52545
-0.57722,0.239759,2.445,2.52363
-0.569284,0.239759,2.445,2.52182
-0.561348,0.239759,2.445,2.52004
-0.553412,0.239759,2.445,2.51829
-0.545476,0.239759,2.445,2.51656
-0.53754,0.239759,2.445,2.51485
-0.533504,0.241524,2.463,2.53167
-0.525509,0.241524,2.463,2.52999
-0.517515,0.241524,2.463,2.52834
-0.509521,0.241524,2.463,2.52672
-0.501526,0.241524,2.463,2.52512
-0.497139,0.243289,2.481,2.54199
-0.489086,0.243289,2.481,2.54042
-0.481034,0.243289,2.481,2.53889
-0.472981,0.243289,2.481,2.53737
-0.468301,0.245054,2.499,2.55428
-0.46019,0.245054,2.499,2.55281
-0.452079,0.245054,2.499,2.55136
-0.443968,0.245054,2.499,2.54993
-0.435857,0.245054,2.499,2.54853
-0.427746,0.245054,2.499,2.54716
-0.419634,0.245054,2.499,2.54581
-0.411523,0.245054,2.499,2.54449
-0.403412,0.245054,2.499,2.54319
-0.395301,0.245054,2.499,2.54191
-0.389979,0.246819,2.517,2.55896
-0.381809,0.246819,2.517,2.55773
-0.37364,0.246819,2.517,2.55652
-0.36547,0.246819,2.517,2.55534
-0.357301,0.246819,2.517,2.55419
-0.349131,0.246819,2.517,2.55306
-0.338523,0.245054,2.499,2.5337
-0.330412,0.245054,2.499,2.53263
-0.322301,0.245054,2.499,2.53159
-0.31419,0.245054,2.499,2.53057
-0.303874,0.243289,2.481,2.51135
-0.295821,0.243289,2.481,2.51039
-0.287769,0.243289,2.481,2.50945
-0.279716,0.243289,2.481,2.50854
-0.271663,0.243289,2.481,2.50766
-0.261698,0.241524,2.463,2.48861
-0.253704,0.241524,2.463,2.48778
-0.245709,0.241524,2.463,2.48698
-0.237715,0.241524,2.463,2.4862
-0.229721,0.241524,2.463,2.48545
-0.221726,0.241524,2.463,2.48473
-0.213732,0.241524,2.463,2.48403
-0.205738,0.241524,2.463,2.48335
-0.197744,0.241524,2.463,2.4827
-0.189749,0.241524,2.463,2.48208
-0.181755,0.241524,2.463,2.48148
-0.173761,0.241524,2.463,2.48091
-0.166978,0.243289,2.481,2.49849
-0.158925,0.243289,2.481,2.49796
-0.150872,0.243289,2.481,2.49746
-0.14282,0.243289,2.481,2.49699
-0.134767,0.243289,2.481,2.49654
-0.126714,0.243289,2.481,2.49612
-0.118662,0.243289,2.481,2.49572
-0.110609,0.243289,2.481,2.49535
-0.102556,0.243289,2.481,2.49501
-0.0945035,0.243289,2.481,2.49469
-0.0864508,0.243289,2.481,2.4944
-0.078398,0.243289,2.481,2.49413
-0.0703453,0.243289,2.481,2.49389
-0.0622926,0.243289,2.481,2.49368
-0.0542399,0.243289,2.481,2.49349
-0.0458521,0.241524,2.463,2.47524
-0.0378578,0.241524,2.463,2.4751
-0.0298635,0.241524,2.463,2.47499
-0.0218693,0.241524,2.463,2.47491
-0.013875,0.241524,2.463,2.47485
-0.00588068,0.241524,2.463,2.47482
0.0021136,0.241524,2.463,2.47481
0.0101079,0.241524,2.463,2.47483
0.0181022,0.241524,2.463,2.47488
0.0260965,0.241524,2.463,2.47495
0.0340907,0.241524,2.463,2.47505
0.042085,0.241524,2.463,2.47517
0.0500793,0.241524,2.463,2.47532
0.0580736,0.241524,2.463,2.4755
0.0660679,0.241524,2.463,2.4757
0.0740622,0.241524,2.463,2.47592
0.0820565,0.241524,2.463,2.47617
0.0907089,0.243289,2.481,2.49455
0.0987616,0.243289,2.481,2.49486
0.106814,0.243289,2.481,2.49519
0.114867,0.243289,2.481,2.49555
0.12292,0.243289,2.481,2.49593
0.130972,0.243289,2.481,2.49634
0.139025,0.243289,2.481,2.49677
0.147078,0.243289,2.481,2.49724
0.155131,0.243289,2.481,2.49772
0.163183,0.243289,2.481,2.49824
0.171236,0.243289,2.481,2.49877
0.179289,0.243289,2.481,2.49934
0.187341,0.243289,2.481,2.49993
0.196812,0.245054,2.499,2.51869
0.204923,0.245054,2.499,2.51933
0.213034,0.245054,2.499,2.52001
0.221145,0.245054,2.499,2.52071
0.229256,0.245054,2.499,2.52143
0.237367,0.245054,2.499,2.52218
0.245479,0.245054,2.499,2.52296
0.251763,0.243289,2.481,2.50558
0.259816,0.243289,2.481,2.5064
0.267868,0.243289,2.481,2.50725
0.275921,0.243289,2.481,2.50812
0.283974,0.243289,2.481,2.50902
0.289908,0.241524,2.463,2.49174
0.297902,0.241524,2.463,2.49268
0.305896,0.241524,2.463,2.49365
0.313891,0.241524,2.463,2.49464
0.319533,0.239759,2.445,2.47742
0.327469,0.239759,2.445,2.47846
0.335404,0.239759,2.445,2.47952
0.34334,0.239759,2.445,2.4806
0.351276,0.239759,2.445,2.48171
0.356714,0.238092,2.428,2.46559
0.364595,0.238092,2.428,2.46674
0.372476,0.238092,2.428,2.46792
0.380356,0.238092,2.428,2.46912
0.385519,0.236425,2.411,2.45305
0.393344,0.236425,2.411,2.45429
0.40117,0.236425,2.411,2.45556
0.408995,0.236425,2.411,2.45685
0.413882,0.234758,2.394,2.44083
0.421652,0.234758,2.394,2.44216
0.429423,0.234758,2.394,2.44351
0.437193,0.234758,2.394,2.44489
0.444963,0.234758,2.394,2.44629
0.452734,0.234758,2.394,2.44772
0.460504,0.234758,2.394,2.44917
0.468274,0.234758,2.394,2.45064
0.476045,0.234758,2.394,2.45214
0.483815,0.234758,2.394,2.45366
0.491585,0.234758,2.394,2.4552
0.499355,0.234758,2.394,2.45677
0.507126,0.234758,2.394,2.45836
0.514896,0.234758,2.394,2.45997
0.522667,0.234758,2.394,2.46161
0.530437,0.234758,2.394,2.46327
0.538207,0.234758,2.394,2.46496
0.545977,0.234758,2.394,2.46667
0.553748,0.234758,2.394,2.4684
0.561518,0.234758,2.394,2.47015
0.569288,0.234758,2.394,2.47193
0.577059,0.234758,2.394,2.47373
0.584829,0.234758,2.394,2.47555
0.588391,0.233091,2.377,2.45981
0.596106,0.233091,2.377,2.46167
0.599757,0.231522,2.361,2.44696
0.603304,0.229953,2.345,2.43226
0.610915,0.229953,2.345,2.43416
0.614306,0.228384,2.329,2.41946
0.617594,0.226815,2.313,2.40475
0.625101,0.226815,2.313,2.40669
0.628506,0.225344,2.298,2.39303
0.627386,0.222304,2.267,2.36269
0.630544,0.220833,2.252,2.34901
0.637853,0.220833,2.252,2.35098
0.645163,0.220833,2.252,2.35298
0.648126,0.219362,2.237,2.33931
0.655387,0.219362,2.237,2.34133
0.662648,0.219362,2.237,2.34337
0.669908,0.219362,2.237,2.34544
0.677169,0.219362,2.237,2.34752
0.68443,0.219362,2.237,2.34962
0.691691,0.219362,2.237,2.35175
0.698951,0.219362,2.237,2.35389
0.701792,0.217989,2.223,2.34132
0.709008,0.217989,2.223,2.34349
0.716223,0.217989,2.223,2.34568
0.723438,0.217989,2.223,2.3479
0.730654,0.217989,2.223,2.35013
0.737869,0.217989,2.223,2.35238
0.745084,0.217989,2.223,2.35465
0.752299,0.217989,2.223,2.35695
0.764298,0.219362,2.237,2.37412
0.771559,0.219362,2.237,2.37647
0.77882,0.219362,2.237,2.37883
0.791351,0.220833,2.252,2.39719
0.80398,0.222304,2.267,2.41559
0.811339,0.222304,2.267,2.41805
0.824114,0.223775,2.282,2.43655
0.837351,0.225344,2.298,2.45616
0.850324,0.226815,2.313,2.47477
0.857831,0.226815,2.313,2.47736
0.871324,0.228384,2.329,2.49712
0.884922,0.229953,2.345,2.51694
0.892533,0.229953,2.345,2.51963
0.900144,0.229953,2.345,2.52233
0.913949,0.231522,2.361,2.54229
0.921612,0.231522,2.361,2.54505
0.929276,0.231522,2.361,2.54784
0.936939,0.231522,2.361,2.55064
0.944602,0.231522,2.361,2.55347
0.952265,0.231522,2.361,2.55631
0.959929,0.231522,2.361,2.55918
0.974149,0.233091,2.377,2.57942
0.981864,0.233091,2.377,2.58235
0.989579,0.233091,2.377,2.58529
0.997294,0.233091,2.377,2.58825
1.00501,0.233091,2.377,2.59124
1.01997,0.234758,2.394,2.61279
1.02774,0.234758,2.394,2.61583
1.03551,0.234758,2.394,2.6189
1.05069,0.236425,2.411,2.6406
1.06598,0.238092,2.428,2.66236
1.07386,0.238092,2.428,2.66553
1.08174,0.238092,2.428,2.66871
1.09725,0.239759,2.445,2.69062
1.10518,0.239759,2.445,2.69387
1.11312,0.239759,2.445,2.69714
1.12105,0.239759,2.445,2.70042
1.12899,0.239759,2.445,2.70373
1.13693,0.239759,2.445,2.70705
1.14486,0.239759,2.445,2.71039
1.16129,0.241524,2.463,2.73373
1.16928,0.241524,2.463,2.73714
1.17727,0.241524,2.463,2.74056
1.18527,0.241524,2.463,2.744
1.20198,0.243289,2.481,2.76755
1.21004,0.243289,2.481,2.77105
1.20925,0.241524,2.463,2.75445
1.21725,0.241524,2.463,2.75797
1.22524,0.241524,2.463,2.76151
1.23323,0.241524,2.463,2.76506
1.24123,0.241524,2.463,2.76864
1.24922,0.241524,2.463,2.77223
1.25722,0.241524,2.463,2.77584
1.26521,0.241524,2.463,2.77947
1.27321,0.241524,2.463,2.78312
1.2812,0.241524,2.463,2.78679
1.28919,0.241524,2.463,2.79047
1.30667,0.243289,2.481,2.81459
1.31472,0.243289,2.481,2.81834
1.33237,0.245054,2.499,2.84258
1.35014,0.246819,2.517,2.86689
1.35831,0.246819,2.517,2.87075
1.36648,0.246819,2.517,2.87462
1.38502,0.248683,2.536,2.90025
1.39325,0.248683,2.536,2.90419
1.41198,0.250546,2.555,2.92993
1.42028,0.250546,2.555,2.93394
1.43919,0.252409,2.574,2.95981
1.44755,0.252409,2.574,2.96388
1.46665,0.254272,2.593,2.98988
1.48644,0.256233,2.613,3.01711
1.48348,0.254272,2.593,2.99817
1.4919,0.254272,2.593,3.00234
1.50031,0.254272,2.593,3.00653
1.50873,0.254272,2.593,3.01074
1.52885,0.256233,2.613,3.03822
1.53733,0.256233,2.613,3.0425
1.54581,0.256233,2.613,3.04679
1.55429,0.256233,2.613,3.05111
1.56277,0.256233,2.613,3.05544
1.57125,0.256233,2.613,3.05978
1.56764,0.254272,2.593,3.04069
1.57606,0.254272,2.593,3.04504
1.58448,0.254272,2.593,3.04941
1.59289,0.254272,2.593,3.05379
1.58958,0.252409,2.574,3.03578
1.59793,0.252409,2.574,3.04016
1.59443,0.250546,2.555,3.02209
1.5908,0.248683,2.536,3.00396
1.59903,0.248683,2.536,3.00833
1.59522,0.246819,2.517,2.99014
1.59193,0.245054,2.499,2.97309
1.58851,0.243289,2.481,2.956
1.59657,0.243289,2.481,2.96033
1.59298,0.241524,2.463,2.94317
1.60097,0.241524,2.463,2.94751
1.60897,0.241524,2.463,2.95186
1.59398,0.238092,2.428,2.91422
1.60186,0.238092,2.428,2.91853
1.60974,0.238092,2.428,2.92287
1.6063,0.236425,2.411,2.90672
1.60274,0.234758,2.394,2.89052
1.61051,0.234758,2.394,2.89484
1.61828,0.234758,2.394,2.89917
1.61451,0.233091,2.377,2.8829
-1.75931,0.256911,2.536,3.09717
-1.76419,0.258836,2.555,3.11567
-1.7559,0.258836,2.555,3.11098
-1.74761,0.258836,2.555,3.10631
-1.75225,0.260761,2.574,3.12472
-1.75677,0.262686,2.593,3.14307
-1.76184,0.264712,2.613,3.16258
-1.75336,0.264712,2.613,3.15786
-1.75823,0.266738,2.633,3.1773
-1.76364,0.268866,2.654,3.19788
-1.75502,0.268866,2.654,3.19314
-1.77405,0.27312,2.696,3.23887
-1.79345,0.277477,2.739,3.28566
-1.78456,0.277477,2.739,3.28082
-1.78993,0.279705,2.761,3.30231
-1.79516,0.281934,2.783,3.32373
-1.78613,0.281934,2.783,3.31886
-1.7771,0.281934,2.783,3.31401
-1.78268,0.284264,2.806,3.33652
-1.77357,0.284264,2.806,3.33167
-1.76446,0.284264,2.806,3.32683
-1.74097,0.281934,2.783,3.29478
-1.73193,0.281934,2.783,3.29001
-1.7229,0.281934,2.783,3.28526
-1.70032,0.279705,2.761,3.2546
-1.67788,0.277477,2.739,3.22403
-1.66899,0.277477,2.739,3.21942
-1.64677,0.275248,2.717,3.189
-1.61263,0.270993,2.675,3.13522
-1.60395,0.270993,2.675,3.13077
-1.57022,0.266738,2.633,3.07724
-1.53795,0.262686,2.593,3.02621
-1.52953,0.262686,2.593,3.02194
-1.48768,0.256911,2.536,2.95135
-1.45786,0.253163,2.499,2.90421
-1.44975,0.253163,2.499,2.90015
-1.42087,0.249516,2.463,2.85438
-1.3928,0.24597,2.428,2.80991
-1.38492,0.24597,2.428,2.80601
-1.35775,0.242526,2.394,2.76289
-1.3404,0.240804,2.377,2.73949
-1.33268,0.240804,2.377,2.73572
-1.32497,0.240804,2.377,2.73197
-1.31725,0.240804,2.377,2.72824
-1.30954,0.240804,2.377,2.72452
-1.32044,0.244248,2.411,2.75974
-1.31262,0.244248,2.411,2.756
-1.30479,0.244248,2.411,2.75228
-1.31526,0.247693,2.445,2.78734
-1.30732,0.247693,2.445,2.78361
-1.30895,0.249516,2.463,2.80035
-1.31997,0.253163,2.499,2.8375
-1.33128,0.256911,2.536,2.87569
-1.32305,0.256911,2.536,2.87189
-1.32467,0.258836,2.555,2.8896
-1.33596,0.262686,2.593,2.92873
-1.32754,0.262686,2.593,2.9249
-1.33947,0.266738,2.633,2.96615
-1.34154,0.268866,2.654,2.98592
-1.34347,0.270993,2.675,3.00566
-1.33479,0.270993,2.675,3.00179
-1.32611,0.270993,2.675,2.99794
-1.31743,0.270993,2.675,2.99411
-1.2882,0.266738,2.633,2.94335
-1.26993,0.264712,2.613,2.91729
-1.26145,0.264712,2.613,2.91361
-1.23427,0.260761,2.574,2.86651
-1.21686,0.258836,2.555,2.84179
-1.20857,0.258836,2.555,2.83825
-1.18243,0.254987,2.517,2.79257
-1.15746,0.25134,2.481,2.74923
-1.14941,0.25134,2.481,2.74585
-1.13308,0.249516,2.463,2.72259
-1.10909,0.24597,2.428,2.68063
-1.0935,0.244248,2.411,2.65863
-1.08568,0.244248,2.411,2.65542
-1.07025,0.242526,2.394,2.63353
-1.06248,0.242526,2.394,2.63038
-1.05471,0.242526,2.394,2.62726
-1.03951,0.240804,2.377,2.60551
-1.03179,0.240804,2.377,2.60244
-1.02408,0.240804,2.377,2.59939
-1.01636,0.240804,2.377,2.59636
-1.00865,0.240804,2.377,2.59335
-1.00093,0.240804,2.377,2.59036
-0.993215,0.240804,2.377,2.58739
-0.9855,0.240804,2.377,2.58444
-0.984778,0.242526,2.394,2.59997
-0.977007,0.242526,2.394,2.59704
-0.969237,0.242526,2.394,2.59412
-0.968294,0.244248,2.411,2.60963
-0.960468,0.244248,2.411,2.60674
-0.952643,0.244248,2.411,2.60386
-0.944817,0.244248,2.411,2.60101
-0.936992,0.244248,2.411,2.59818
-0.929166,0.244248,2.411,2.59537
-0.921341,0.244248,2.411,2.59258
-0.913515,0.244248,2.411,2.5898
-0.90569,0.244248,2.411,2.58705
-0.897864,0.244248,2.411,2.58433
-0.890039,0.244248,2.411,2.58162
-0.882213,0.244248,2.411,2.57893
-0.874388,0.244248,2.411,2.57626
-0.866562,0.244248,2.411,2.57362
-0.858737,0.244248,2.411,2.57099
-0.850911,0.244248,2.411,2.56839
-0.843086,0.244248,2.411,2.56581
-0.83526,0.244248,2.411,2.56325
-0.827435,0.244248,2.411,2.56071
-0.819609,0.244248,2.411,2.55819
-0.817508,0.24597,2.428,2.57371
-0.809627,0.24597,2.428,2.57122
-0.801746,0.24597,2.428,2.56875
-0.799424,0.247693,2.445,2.58427
-0.791488,0.247693,2.445,2.58183
-0.783552,0.247693,2.445,2.57941
-0.775616,0.247693,2.445,2.57701
-0.773332,0.249516,2.463,2.59358
-0.765338,0.249516,2.463,2.59121
-0.757344,0.249516,2.463,2.58886
-0.749349,0.249516,2.463,2.58653
-0.741355,0.249516,2.463,2.58423
-0.733361,0.249516,2.463,2.58195
-0.725366,0.249516,2.463,2.57969
-0.717372,0.249516,2.463,2.57745
-0.709378,0.249516,2.463,2.57524
-0.701384,0.249516,2.463,2.57305
-0.693389,0.249516,2.463,2.57088
-0.685395,0.249516,2.463,2.56873
-0.677401,0.249516,2.463,2.56661
-0.669406,0.249516,2.463,2.56451
-0.661412,0.249516,2.463,2.56244
-0.653418,0.249516,2.463,2.56039
-0.645424,0.249516,2.463,2.55836
-0.637429,0.249516,2.463,2.55635
-0.629435,0.249516,2.463,2.55437
-0.621441,0.249516,2.463,2.55241
-0.613446,0.249516,2.463,2.55048
-0.605452,0.249516,2.463,2.54857
-0.597458,0.249516,2.463,2.54668
-0.589464,0.249516,2.463,2.54482
-0.581469,0.249516,2.463,2.54298
-0.569284,0.247693,2.445,2.52259
-0.561348,0.247693,2.445,2.52081
-0.557486,0.249516,2.463,2.5376
-0.549492,0.249516,2.463,2.53586
-0.541498,0.249516,2.463,2.53414
-0.533504,0.249516,2.463,2.53244
-0.525509,0.249516,2.463,2.53077
-0.521297,0.25134,2.481,2.5476
-0.513244,0.25134,2.481,2.54597
-0.505192,0.25134,2.481,2.54436
-0.497139,0.25134,2.481,2.54277
-0.489086,0.25134,2.481,2.54121
-0.484524,0.253163,2.499,2.5581
-0.476412,0.253163,2.499,2.55657
-0.468301,0.253163,2.499,2.55507
-0.46019,0.253163,2.499,2.5536
-0.452079,0.253163,2.499,2.55215
-0.443968,0.253163,2.499,2.55073
-0.435857,0.253163,2.499,2.54933
-0.427746,0.253163,2.499,2.54795
-0.419634,0.253163,2.499,2.5466
-0.414487,0.254987,2.517,2.56361
-0.406318,0.254987,2.517,2.5623
-0.398148,0.254987,2.517,2.56102
-0.389979,0.254987,2.517,2.55976
-0.381809,0.254987,2.517,2.55853
-0.37364,0.254987,2.517,2.55733
-0.36547,0.254987,2.517,2.55614
-0.357301,0.254987,2.517,2.55499
-0.349131,0.254987,2.517,2.55386
-0.338523,0.253163,2.499,2.5345
-0.330412,0.253163,2.499,2.53343
-0.322301,0.253163,2.499,2.53238
-0.31419,0.253163,2.499,2.53136
-0.303874,0.25134,2.481,2.51215
-0.295821,0.25134,2.481,2.51118
-0.287769,0.25134,2.481,2.51025
-0.279716,0.25134,2.481,2.50934
-0.271663,0.25134,2.481,2.50845
-0.261698,0.249516,2.463,2.4894
-0.253704,0.249516,2.463,2.48857
-0.245709,0.249516,2.463,2.48777
-0.237715,0.249516,2.463,2.48699
-0.229721,0.249516,2.463,2.48624
-0.221726,0.249516,2.463,2.48552
-0.213732,0.249516,2.463,2.48482
-0.205738,0.249516,2.463,2.48414
-0.197744,0.249516,2.463,2.48349
-0.189749,0.249516,2.463,2.48287
-0.181755,0.249516,2.463,2.48227
-0.173761,0.249516,2.463,2.4817
-0.166978,0.25134,2.481,2.49928
-0.158925,0.25134,2.481,2.49876
-0.150872,0.25134,2.481,2.49826
-0.14282,0.25134,2.481,2.49779
-0.134767,0.25134,2.481,2.49734
-0.126714,0.25134,2.481,2.49692
-0.118662,0.25134,2.481,2.49652
-0.110609,0.25134,2.481,2.49615
-0.102556,0.25134,2.481,2.49581
-0.0945035,0.25134,2.481,2.49549
-0.0864508,0.25134,2.481,2.4952
-0.078398,0.25134,2.481,2.49493
-0.0703453,0.25134,2.481,2.49469
-0.0622926,0.25134,2.481,2.49448
-0.0542399,0.25134,2.481,2.49429
-0.0458521,0.249516,2.463,2.47603
-0.0378578,0.249516,2.463,2.4759
-0.0298635,0.249516,2.463,2.47579
-0.0218693,0.249516,2.463,2.4757
-0.013875,0.249516,2.463,2.47565
-0.00588068,0.249516,2.463,2.47561
0.0021136,0.249516,2.463,2.47561
0.0101079,0.249516,2.463,2.47563
0.0181022,0.249516,2.463,2.47567
0.0260965,0.249516,2.463,2.47574
0.0340907,0.249516,2.463,2.47584
0.042085,0.249516,2.463,2.47596
0.0500793,0.249516,2.463,2.47611
0.0580736,0.249516,2.463,2.47629
0.0660679,0.249516,2.463,2.47649
0.0740622,0.249516,2.463,2.47671
0.0820565,0.249516,2.463,2.47697
0.0907089,0.25134,2.481,2.49535
0.0987616,0.25134,2.481,2.49565
0.106814,0.25134,2.481,2.49599
0.114867,0.25134,2.481,2.49634
0.12292,0.25134,2.481,2.49673
0.130972,0.25134,2.481,2.49714
0.139025,0.25134,2.481,2.49757
0.147078,0.25134,2.481,2.49803
0.155131,0.25134,2.481,2.49852
0.163183,0.25134,2.481,2.49903
0.172478,0.253163,2.499,2.51771
0.180589,0.253163,2.499,2.51827
0.188701,0.253163,2.499,2.51887
0.196812,0.253163,2.499,2.51949
0.204923,0.253163,2.499,2.52014
0.213034,0.253163,2.499,2.52081
0.221145,0.253163,2.499,2.52151
0.229256,0.253163,2.499,2.52223
0.237367,0.253163,2.499,2.52298
0.245479,0.253163,2.499,2.52376
0.25359,0.253163,2.499,2.52456
0.261701,0.253163,2.499,2.52539
0.269812,0.253163,2.499,2.52624
0.275921,0.25134,2.481,2.50892
0.283974,0.25134,2.481,2.50982
0.292027,0.25134,2.481,2.51074
0.300079,0.25134,2.481,2.51169
0.308132,0.25134,2.481,2.51266
0.313891,0.249516,2.463,2.49543
0.321885,0.249516,2.463,2.49644
0.329879,0.249516,2.463,2.49749
0.335404,0.247693,2.445,2.4803
0.34334,0.247693,2.445,2.48138
0.351276,0.247693,2.445,2.48249
0.359212,0.247693,2.445,2.48363
0.364595,0.24597,2.428,2.46751
0.372476,0.24597,2.428,2.46869
0.380356,0.24597,2.428,2.46989
0.385519,0.244248,2.411,2.45381
0.393344,0.244248,2.411,2.45506
0.40117,0.244248,2.411,2.45632
0.408995,0.244248,2.411,2.45761
0.416821,0.244248,2.411,2.45893
0.424646,0.244248,2.411,2.46026
0.432472,0.244248,2.411,2.46163
0.440297,0.244248,2.411,2.46301
0.448123,0.244248,2.411,2.46443
0.455948,0.244248,2.411,2.46586
0.460504,0.242526,2.394,2.44992
0.468274,0.242526,2.394,2.45139
0.476045,0.242526,2.394,2.45289
0.483815,0.242526,2.394,2.45441
0.491585,0.242526,2.394,2.45595
0.499355,0.242526,2.394,2.45752
0.507126,0.242526,2.394,2.45911
0.514896,0.242526,2.394,2.46073
0.522667,0.242526,2.394,2.46236
0.530437,0.242526,2.394,2.46403
0.538207,0.242526,2.394,2.46571
0.545977,0.242526,2.394,2.46742
0.55768,0.244248,2.411,2.48668
0.561518,0.242526,2.394,2.4709
0.569288,0.242526,2.394,2.47268
0.577059,0.242526,2.394,2.47448
0.584829,0.242526,2.394,2.4763
0.588391,0.240804,2.377,2.46055
0.596106,0.240804,2.377,2.46241
0.599757,0.239183,2.361,2.4477
0.60742,0.239183,2.361,2.44959
0.615084,0.239183,2.361,2.4515
0.618527,0.237562,2.345,2.43681
0.617594,0.23432,2.313,2.40547
0.625101,0.23432,2.313,2.40741
0.628506,0.232801,2.298,2.39375
0.631537,0.23118,2.282,2.37903
0.634744,0.22966,2.267,2.36536
0.642102,0.22966,2.267,2.36735
0.645163,0.228141,2.252,2.35368
0.648126,0.226621,2.237,2.34
0.655387,0.226621,2.237,2.34202
0.662648,0.226621,2.237,2.34406
0.669908,0.226621,2.237,2.34613
0.677169,0.226621,2.237,2.34821
0.68443,0.226621,2.237,2.35031
0.691691,0.226621,2.237,2.35244
0.698951,0.226621,2.237,2.35458
0.701792,0.225203,2.223,2.342
0.709008,0.225203,2.223,2.34417
0.716223,0.225203,2.223,2.34636
0.723438,0.225203,2.223,2.34858
0.730654,0.225203,2.223,2.35081
0.737869,0.225203,2.223,2.35306
0.745084,0.225203,2.223,2.35533
0.752299,0.225203,2.223,2.35763
0.764298,0.226621,2.237,2.3748
0.771559,0.226621,2.237,2.37715
0.77882,0.226621,2.237,2.37951
0.791351,0.228141,2.252,2.39787
0.80398,0.22966,2.267,2.41628
0.811339,0.22966,2.267,2.41874
0.824114,0.23118,2.282,2.43724
0.837351,0.232801,2.298,2.45686
0.850324,0.23432,2.313,2.47546
0.857831,0.23432,2.313,2.47805
0.871324,0.235941,2.329,2.49782
0.884922,0.237562,2.345,2.51765
0.892533,0.237562,2.345,2.52033
0.900144,0.237562,2.345,2.52304
0.913949,0.239183,2.361,2.543
0.921612,0.239183,2.361,2.54576
0.929276,0.239183,2.361,2.54855
0.936939,0.239183,2.361,2.55135
0.944602,0.239183,2.361,2.55417
0.952265,0.239183,2.361,2.55702
0.959929,0.239183,2.361,2.55988
0.974149,0.240804,2.377,2.58013
0.981864,0.240804,2.377,2.58305
0.989579,0.240804,2.377,2.586
0.997294,0.240804,2.377,2.58896
1.00501,0.240804,2.377,2.59194
1.01997,0.242526,2.394,2.6135
1.03504,0.244248,2.411,2.63512
1.04286,0.244248,2.411,2.63821
1.05069,0.244248,2.411,2.64131
1.06598,0.24597,2.428,2.66308
1.07386,0.24597,2.428,2.66624
1.08174,0.24597,2.428,2.66943
1.09725,0.247693,2.445,2.69134
1.10518,0.247693,2.445,2.69459
1.11312,0.247693,2.445,2.69785
1.12931,0.249516,2.463,2.72102
1.1373,0.249516,2.463,2.72435
1.13693,0.247693,2.445,2.70776
1.14486,0.247693,2.445,2.7111
1.16129,0.249516,2.463,2.73445
1.16928,0.249516,2.463,2.73785
1.17727,0.249516,2.463,2.74128
1.18527,0.249516,2.463,2.74472
1.20198,0.25134,2.481,2.76827
1.21004,0.25134,2.481,2.77177
1.20925,0.249516,2.463,2.75516
1.21725,0.249516,2.463,2.75868
1.22524,0.249516,2.463,2.76222
1.23323,0.249516,2.463,2.76577
1.24123,0.249516,2.463,2.76935
1.24922,0.249516,2.463,2.77294
1.25722,0.249516,2.463,2.77655
1.26521,0.249516,2.463,2.78018
1.27321,0.249516,2.463,2.78382
1.2812,0.249516,2.463,2.78749
1.28919,0.249516,2.463,2.79117
1.29719,0.249516,2.463,2.79487
1.30518,0.249516,2.463,2.79859
1.32277,0.25134,2.481,2.82281
1.34048,0.253163,2.499,2.8471
1.34859,0.253163,2.499,2.85093
1.36648,0.254987,2.517,2.87534
1.37465,0.254987,2.517,2.87923
1.38282,0.254987,2.517,2.88314
1.40148,0.256911,2.536,2.90886
1.42028,0.258836,2.555,2.93466
1.42857,0.258836,2.555,2.93868
1.43686,0.258836,2.555,2.94272
1.4559,0.260761,2.574,2.96869
1.47507,0.262686,2.593,2.99474
1.48348,0.262686,2.593,2.9989
1.4919,0.262686,2.593,3.00307
1.50031,0.262686,2.593,3.00726
1.50873,0.262686,2.593,3.01147
1.51715,0.262686,2.593,3.01569
1.53733,0.264712,2.613,3.04323
1.54581,0.264712,2.613,3.04752
1.55429,0.264712,2.613,3.05183
1.56277,0.264712,2.613,3.05616
1.57125,0.264712,2.613,3.0605
1.56764,0.262686,2.593,3.04141
1.57606,0.262686,2.593,3.04575
1.58448,0.262686,2.593,3.05012
1.59289,0.262686,2.593,3.0545
1.58958,0.260761,2.574,3.03648
1.59793,0.260761,2.574,3.04086
1.59443,0.258836,2.555,3.02278
1.5908,0.256911,2.536,3.00466
1.59903,0.256911,2.536,3.00902
1.59522,0.254987,2.517,2.99083
1.59193,0.253163,2.499,2.97377
1.58851,0.25134,2.481,2.95667
1.59657,0.25134,2.481,2.96101
1.59298,0.249516,2.463,2.94384
1.58927,0.247693,2.445,2.92663
1.59721,0.247693,2.445,2.93095
1.59398,0.24597,2.428,2.91487
1.59065,0.244248,2.411,2.89875
1.59847,0.244248,2.411,2.90305
1.59497,0.242526,2.394,2.88687
1.60274,0.242526,2.394,2.89117
1.61051,0.242526,2.394,2.89548
1.60679,0.240804,2.377,2.87922
1.61451,0.240804,2.377,2.88353
-1.77249,0.267127,2.555,3.12107
-1.76419,0.267127,2.555,3.11637
-1.76896,0.269113,2.574,3.13482
-1.7606,0.269113,2.574,3.13012
-1.76518,0.2711,2.593,3.14849
-1.77032,0.273191,2.613,3.16803
-1.77532,0.275282,2.633,3.18751
-1.76678,0.275282,2.633,3.18276
-1.77225,0.277477,2.654,3.20337
-1.79155,0.281868,2.696,3.24923
-1.7828,0.281868,2.696,3.24442
-1.78787,0.284064,2.717,3.26485
-1.79345,0.286364,2.739,3.28643
-1.78456,0.286364,2.739,3.28158
-1.8042,0.290964,2.783,3.3294
-1.81,0.293369,2.806,3.35198
-1.80089,0.293369,2.806,3.34708
-1.79179,0.293369,2.806,3.34218
-1.78268,0.293369,2.806,3.33731
-1.77357,0.293369,2.806,3.33245
-1.76446,0.293369,2.806,3.32762
-1.75535,0.293369,2.806,3.3228
-1.74625,0.293369,2.806,3.31799
-1.73714,0.293369,2.806,3.31321
-1.71387,0.290964,2.783,3.28133
-1.69136,0.288664,2.761,3.25071
-1.6824,0.288664,2.761,3.24606
-1.64677,0.284064,2.717,3.18977
-1.61263,0.279673,2.675,3.13599
-1.60395,0.279673,2.675,3.13153
-1.57022,0.275282,2.633,3.07799
-1.53795,0.2711,2.593,3.02695
-1.52953,0.2711,2.593,3.02268
-1.48768,0.26514,2.536,2.95208
-1.45786,0.261272,2.499,2.90493
-1.44975,0.261272,2.499,2.90087
-1.42087,0.257508,2.463,2.85509
-1.3928,0.253849,2.428,2.81061
-1.38492,0.253849,2.428,2.80671
-1.35775,0.250294,2.394,2.76358
-1.3404,0.248517,2.377,2.74017
-1.33268,0.248517,2.377,2.73641
-1.32497,0.248517,2.377,2.73266
-1.31725,0.248517,2.377,2.72893
-1.30954,0.248517,2.377,2.72521
-1.32044,0.252072,2.411,2.76044
-1.31262,0.252072,2.411,2.75671
-1.30479,0.252072,2.411,2.75299
-1.31526,0.255626,2.445,2.78806
-1.30732,0.255626,2.445,2.78432
-1.31852,0.25939,2.481,2.82155
-1.31997,0.261272,2.499,2.83824
-1.33128,0.26514,2.536,2.87644
-1.32305,0.26514,2.536,2.87264
-1.32467,0.267127,2.555,2.89035
-1.33596,0.2711,2.593,2.92949
-1.32754,0.2711,2.593,2.92566
-1.33947,0.275282,2.633,2.96693
-1.34154,0.277477,2.654,2.98671
-1.34347,0.279673,2.675,3.00645
-1.33479,0.279673,2.675,3.00258
-1.3157,0.277477,2.654,2.97519
-1.30708,0.277477,2.654,2.97139
-1.2882,0.275282,2.633,2.94413
-1.26021,0.2711,2.593,2.89573
-1.25179,0.2711,2.593,2.89208
-1.23427,0.269113,2.574,2.86728
-1.20781,0.26514,2.536,2.82142
-1.19958,0.26514,2.536,2.81791
-1.18243,0.263154,2.517,2.79333
-1.15746,0.25939,2.481,2.74997
-1.14941,0.25939,2.481,2.7466
-1.13308,0.257508,2.463,2.72333
-1.10909,0.253849,2.428,2.68136
-1.0935,0.252072,2.411,2.65936
-1.08568,0.252072,2.411,2.65615
-1.07025,0.250294,2.394,2.63426
-1.06248,0.250294,2.394,2.63111
-1.05471,0.250294,2.394,2.62798
-1.03951,0.248517,2.377,2.60624
-1.03179,0.248517,2.377,2.60317
-1.02408,0.248517,2.377,2.60012
-1.01636,0.248517,2.377,2.59709
-1.00865,0.248517,2.377,2.59408
-1.00093,0.248517,2.377,2.59109
-0.993215,0.248517,2.377,2.58812
-0.9855,0.248517,2.377,2.58517
-0.984778,0.250294,2.394,2.60071
-0.983945,0.252072,2.411,2.61622
-0.976119,0.252072,2.411,2.61329
-0.968294,0.252072,2.411,2.61037
-0.960468,0.252072,2.411,2.60748
-0.952643,0.252072,2.411,2.60461
-0.951479,0.253849,2.428,2.6201
-0.943599,0.253849,2.428,2.61725
-0.935718,0.253849,2.428,2.61442
-0.927837,0.253849,2.428,2.61161
-0.919957,0.253849,2.428,2.60882
-0.912076,0.253849,2.428,2.60605
-0.897864,0.252072,2.411,2.58508
-0.890039,0.252072,2.411,2.58237
-0.882213,0.252072,2.411,2.57968
-0.874388,0.252072,2.411,2.57702
-0.866562,0.252072,2.411,2.57437
-0.858737,0.252072,2.411,2.57175
-0.850911,0.252072,2.411,2.56915
-0.843086,0.252072,2.411,2.56656
-0.83526,0.252072,2.411,2.564
-0.833269,0.253849,2.428,2.57953
-0.825388,0.253849,2.428,2.57699
-0.817508,0.253849,2.428,2.57448
-0.809627,0.253849,2.428,2.57199
-0.801746,0.253849,2.428,2.56952
-0.799424,0.255626,2.445,2.58504
-0.791488,0.255626,2.445,2.5826
-0.783552,0.255626,2.445,2.58018
-0.781326,0.257508,2.463,2.59676
-0.773332,0.257508,2.463,2.59436
-0.765338,0.257508,2.463,2.59199
-0.757344,0.257508,2.463,2.58964
-0.749349,0.257508,2.463,2.58732
-0.741355,0.257508,2.463,2.58501
-0.733361,0.257508,2.463,2.58273
-0.725366,0.257508,2.463,2.58047
-0.717372,0.257508,2.463,2.57824
-0.709378,0.257508,2.463,2.57602
-0.701384,0.257508,2.463,2.57383
-0.693389,0.257508,2.463,2.57167
-0.685395,0.257508,2.463,2.56952
-0.677401,0.257508,2.463,2.5674
-0.669406,0.257508,2.463,2.5653
-0.661412,0.257508,2.463,2.56323
-0.653418,0.257508,2.463,2.56118
-0.645424,0.257508,2.463,2.55915
-0.637429,0.257508,2.463,2.55715
-0.629435,0.257508,2.463,2.55517
-0.621441,0.257508,2.463,2.55321
-0.613446,0.257508,2.463,2.55127
-0.605452,0.257508,2.463,2.54936
-0.597458,0.257508,2.463,2.54748
-0.589464,0.257508,2.463,2.54561
-0.581469,0.257508,2.463,2.54377
-0.569284,0.255626,2.445,2.52338
-0.561348,0.255626,2.445,2.5216
-0.557486,0.257508,2.463,2.5384
-0.549492,0.257508,2.463,2.53666
-0.541498,0.257508,2.463,2.53494
-0.533504,0.257508,2.463,2.53324
-0.525509,0.257508,2.463,2.53157
-0.521297,0.25939,2.481,2.54841
-0.513244,0.25939,2.481,2.54678
-0.505192,0.25939,2.481,2.54516
-0.497139,0.25939,2.481,2.54358
-0.489086,0.25939,2.481,2.54202
-0.484524,0.261272,2.499,2.55891
-0.476412,0.261272,2.499,2.55739
-0.468301,0.261272,2.499,2.55589
-0.46019,0.261272,2.499,2.55442
-0.452079,0.261272,2.499,2.55297
-0.443968,0.261272,2.499,2.55154
-0.435857,0.261272,2.499,2.55014
-0.427746,0.261272,2.499,2.54877
-0.419634,0.261272,2.499,2.54742
-0.414487,0.263154,2.517,2.56444
-0.406318,0.263154,2.517,2.56313
-0.398148,0.263154,2.517,2.56185
-0.389979,0.263154,2.517,2.56059
-0.381809,0.263154,2.517,2.55936
-0.37364,0.263154,2.517,2.55815
-0.36547,0.263154,2.517,2.55697
-0.357301,0.263154,2.517,2.55582
-0.349131,0.263154,2.517,2.55469
-0.338523,0.261272,2.499,2.53532
-0.330412,0.261272,2.499,2.53425
-0.322301,0.261272,2.499,2.53321
-0.31419,0.261272,2.499,2.53219
-0.303874,0.25939,2.481,2.51296
-0.295821,0.25939,2.481,2.512
-0.287769,0.25939,2.481,2.51107
-0.279716,0.25939,2.481,2.51016
-0.271663,0.25939,2.481,2.50927
-0.261698,0.257508,2.463,2.49021
-0.253704,0.257508,2.463,2.48939
-0.245709,0.257508,2.463,2.48858
-0.237715,0.257508,2.463,2.48781
-0.229721,0.257508,2.463,2.48706
-0.221726,0.257508,2.463,2.48633
-0.213732,0.257508,2.463,2.48563
-0.205738,0.257508,2.463,2.48496
-0.197744,0.257508,2.463,2.48431
-0.189749,0.257508,2.463,2.48368
-0.181755,0.257508,2.463,2.48309
-0.173761,0.257508,2.463,2.48251
-0.166978,0.25939,2.481,2.50011
-0.158925,0.25939,2.481,2.49958
-0.150872,0.25939,2.481,2.49908
-0.14282,0.25939,2.481,2.49861
-0.134767,0.25939,2.481,2.49816
-0.126714,0.25939,2.481,2.49774
-0.118662,0.25939,2.481,2.49734
-0.110609,0.25939,2.481,2.49697
-0.102556,0.25939,2.481,2.49663
-0.0945035,0.25939,2.481,2.49631
-0.0864508,0.25939,2.481,2.49602
-0.078398,0.25939,2.481,2.49575
-0.0703453,0.25939,2.481,2.49551
-0.0622926,0.25939,2.481,2.4953
-0.0542399,0.25939,2.481,2.49511
-0.0461872,0.25939,2.481,2.49495
-0.0381345,0.25939,2.481,2.49481
-0.0300818,0.25939,2.481,2.4947
-0.0220291,0.25939,2.481,2.49462
-0.0139764,0.25939,2.481,2.49456
-0.00592366,0.25939,2.481,2.49453
0.00212905,0.25939,2.481,2.49452
0.0101079,0.257508,2.463,2.47645
0.0181022,0.257508,2.463,2.47649
0.0260965,0.257508,2.463,2.47656
0.0340907,0.257508,2.463,2.47666
0.042085,0.257508,2.463,2.47678
0.0500793,0.257508,2.463,2.47693
0.0580736,0.257508,2.463,2.47711
0.0660679,0.257508,2.463,2.47731
0.0740622,0.257508,2.463,2.47753
0.0820565,0.257508,2.463,2.47778
0.0907089,0.25939,2.481,2.49617
0.0987616,0.25939,2.481,2.49648
0.106814,0.25939,2.481,2.49681
0.114867,0.25939,2.481,2.49717
0.123811,0.261272,2.499,2.51567
0.131923,0.261272,2.499,2.51608
0.140034,0.261272,2.499,2.51652
0.148145,0.261272,2.499,2.51698
0.156256,0.261272,2.499,2.51747
0.164367,0.261272,2.499,2.51799
0.172478,0.261272,2.499,2.51853
0.180589,0.261272,2.499,2.5191
0.188701,0.261272,2.499,2.5197
0.196812,0.261272,2.499,2.52032
0.204923,0.261272,2.499,2.52096
0.213034,0.261272,2.499,2.52164
0.222738,0.263154,2.517,2.5405
0.230908,0.263154,2.517,2.54123
0.237367,0.261272,2.499,2.52381
0.245479,0.261272,2.499,2.52458
0.25359,0.261272,2.499,2.52539
0.261701,0.261272,2.499,2.52621
0.269812,0.261272,2.499,2.52707
0.277923,0.261272,2.499,2.52795
0.286034,0.261272,2.499,2.52885
0.292027,0.25939,2.481,2.51156
0.300079,0.25939,2.481,2.51251
0.308132,0.25939,2.481,2.51348
0.316185,0.25939,2.481,2.51448
0.321885,0.257508,2.463,2.49726
0.329879,0.257508,2.463,2.4983
0.337874,0.257508,2.463,2.49937
0.34334,0.255626,2.445,2.48219
0.351276,0.255626,2.445,2.4833
0.359212,0.255626,2.445,2.48443
0.367148,0.255626,2.445,2.48559
0.372476,0.253849,2.428,2.46949
0.380356,0.253849,2.428,2.47069
0.388237,0.253849,2.428,2.47191
0.396118,0.253849,2.428,2.47316
0.403999,0.253849,2.428,2.47444
0.411879,0.253849,2.428,2.47574
0.41976,0.253849,2.428,2.47706
0.427641,0.253849,2.428,2.47841
0.432472,0.252072,2.411,2.46242
0.440297,0.252072,2.411,2.4638
0.448123,0.252072,2.411,2.46521
0.455948,0.252072,2.411,2.46665
0.463774,0.252072,2.411,2.46811
0.471599,0.252072,2.411,2.46959
0.479425,0.252072,2.411,2.47109
0.48725,0.252072,2.411,2.47263
0.491585,0.250294,2.394,2.45673
0.499355,0.250294,2.394,2.4583
0.507126,0.250294,2.394,2.45989
0.514896,0.250294,2.394,2.4615
0.522667,0.250294,2.394,2.46314
0.530437,0.250294,2.394,2.4648
0.542029,0.252072,2.411,2.484
0.549854,0.252072,2.411,2.48572
0.55768,0.252072,2.411,2.48746
0.565506,0.252072,2.411,2.48923
0.569288,0.250294,2.394,2.47345
0.577059,0.250294,2.394,2.47525
0.584829,0.250294,2.394,2.47708
0.592599,0.250294,2.394,2.47892
0.60037,0.250294,2.394,2.48079
0.603822,0.248517,2.377,2.46505
0.60742,0.246844,2.361,2.45035
0.615084,0.246844,2.361,2.45226
0.618527,0.245171,2.345,2.43756
0.621866,0.243498,2.329,2.42286
0.629425,0.243498,2.329,2.42481
0.632608,0.241826,2.313,2.41011
0.635965,0.240257,2.298,2.39645
0.638943,0.238585,2.282,2.38174
0.64635,0.238585,2.282,2.38374
0.645163,0.235448,2.252,2.35439
0.648126,0.23388,2.237,2.34071
0.655387,0.23388,2.237,2.34273
0.662648,0.23388,2.237,2.34478
0.669908,0.23388,2.237,2.34684
0.677169,0.23388,2.237,2.34892
0.68443,0.23388,2.237,2.35102
0.691691,0.23388,2.237,2.35315
0.698951,0.23388,2.237,2.35529
0.701792,0.232416,2.223,2.3427
0.709008,0.232416,2.223,2.34487
0.716223,0.232416,2.223,2.34707
0.723438,0.232416,2.223,2.34928
0.730654,0.232416,2.223,2.35151
0.737869,0.232416,2.223,2.35376
0.745084,0.232416,2.223,2.35603
0.752299,0.232416,2.223,2.35833
0.764298,0.23388,2.237,2.3755
0.771559,0.23388,2.237,2.37785
0.77882,0.23388,2.237,2.38022
0.78608,0.23388,2.237,2.3826
0.798661,0.235448,2.252,2.401
0.80597,0.235448,2.252,2.40344
0.818697,0.237016,2.267,2.42193
0.83152,0.238585,2.282,2.44047
0.850324,0.241826,2.313,2.47619
0.857831,0.241826,2.313,2.47877
0.865339,0.241826,2.313,2.48138
0.884922,0.245171,2.345,2.51838
0.892533,0.245171,2.345,2.52106
0.900144,0.245171,2.345,2.52377
0.907756,0.245171,2.345,2.52649
0.915367,0.245171,2.345,2.52924
0.922978,0.245171,2.345,2.532
0.930589,0.245171,2.345,2.53478
0.938201,0.245171,2.345,2.53759
0.945812,0.245171,2.345,2.54041
0.959929,0.246844,2.361,2.56061
0.967592,0.246844,2.361,2.56349
0.975255,0.246844,2.361,2.56639
0.989579,0.248517,2.377,2.58673
0.997294,0.248517,2.377,2.58969
1.00501,0.248517,2.377,2.59267
1.01997,0.250294,2.394,2.61423
1.03504,0.252072,2.411,2.63586
1.04286,0.252072,2.411,2.63894
1.05069,0.252072,2.411,2.64205
1.06598,0.253849,2.428,2.66382
1.07386,0.253849,2.428,2.66698
1.08174,0.253849,2.428,2.67016
1.09725,0.255626,2.445,2.69209
1.10518,0.255626,2.445,2.69533
1.11312,0.255626,2.445,2.69859
1.12931,0.257508,2.463,2.72177
1.1373,0.257508,2.463,2.72509
1.1453,0.257508,2.463,2.72844
1.15329,0.257508,2.463,2.73181
1.16129,0.257508,2.463,2.73519
1.16928,0.257508,2.463,2.73859
1.17727,0.257508,2.463,2.74202
1.19393,0.25939,2.481,2.76552
1.20198,0.25939,2.481,2.76901
1.21004,0.25939,2.481,2.77251
1.21809,0.25939,2.481,2.77604
1.22614,0.25939,2.481,2.77958
1.23419,0.25939,2.481,2.78314
1.23323,0.257508,2.463,2.7665
1.24123,0.257508,2.463,2.77008
1.24922,0.257508,2.463,2.77367
1.25722,0.257508,2.463,2.77728
1.26521,0.257508,2.463,2.78091
1.27321,0.257508,2.463,2.78455
1.2812,0.257508,2.463,2.78822
1.28919,0.257508,2.463,2.7919
1.29719,0.257508,2.463,2.7956
1.30518,0.257508,2.463,2.79932
1.32277,0.25939,2.481,2.82354
1.34048,0.261272,2.499,2.84783
1.34859,0.261272,2.499,2.85166
1.3567,0.261272,2.499,2.85551
1.37465,0.263154,2.517,2.87996
1.38282,0.263154,2.517,2.88387
1.39098,0.263154,2.517,2.8878
1.40972,0.26514,2.536,2.91357
1.42857,0.267127,2.555,2.93942
1.43686,0.267127,2.555,2.94346
1.4559,0.269113,2.574,2.96944
1.47507,0.2711,2.593,2.99549
1.48348,0.2711,2.593,2.99964
1.4919,0.2711,2.593,3.00382
1.50031,0.2711,2.593,3.008
1.50873,0.2711,2.593,3.01221
1.51715,0.2711,2.593,3.01644
1.53733,0.273191,2.613,3.04398
1.54581,0.273191,2.613,3.04827
1.55429,0.273191,2.613,3.05258
1.56277,0.273191,2.613,3.0569
1.57125,0.273191,2.613,3.06125
1.57974,0.273191,2.613,3.06561
1.57606,0.2711,2.593,3.04649
1.58448,0.2711,2.593,3.05085
1.59289,0.2711,2.593,3.05523
1.58958,0.269113,2.574,3.03721
1.59793,0.269113,2.574,3.04159
1.59443,0.267127,2.555,3.02351
1.5908,0.26514,2.536,3.00537
1.59903,0.26514,2.536,3.00974
1.59522,0.263154,2.517,2.99153
1.59193,0.261272,2.499,2.97447
1.58851,0.25939,2.481,2.95737
1.59657,0.25939,2.481,2.9617
1.59298,0.257508,2.463,2.94453
1.58927,0.255626,2.445,2.92731
1.59721,0.255626,2.445,2.93163
1.59398,0.253849,2.428,2.91554
1.57943,0.250294,2.394,2.87897
1.5872,0.250294,2.394,2.88324
1.59497,0.250294,2.394,2.88753
1.59136,0.248517,2.377,2.87129
1.59908,0.248517,2.377,2.87558
1.60679,0.248517,2.377,2.87987
1.60364,0.246844,2.361,2.86477
-1.77249,0.275417,2.555,3.12179
-1.77731,0.277465,2.574,3.14027
-1.78202,0.279514,2.593,3.1587
-1.7736,0.279514,2.593,3.15396
-1.7788,0.28167,2.613,3.17352
-1.78387,0.283825,2.633,3.19303
-1.78948,0.286089,2.654,3.21369
-1.78087,0.286089,2.654,3.2089
-1.8003,0.290617,2.696,3.25484
-1.8055,0.29288,2.717,3.27532
-1.79668,0.29288,2.717,3.27047
-1.80234,0.295252,2.739,3.29207
-1.82226,0.299995,2.783,3.34002
-1.82822,0.302474,2.806,3.36266
-1.81911,0.302474,2.806,3.35772
-1.81,0.302474,2.806,3.35279
-1.81565,0.304953,2.829,3.37533
-1.80647,0.304953,2.829,3.3704
-1.79729,0.304953,2.829,3.36548
-1.78811,0.304953,2.829,3.36059
-1.77893,0.304953,2.829,3.35571
-1.76974,0.304953,2.829,3.35086
-1.76056,0.304953,2.829,3.34601
-1.73714,0.302474,2.806,3.31403
-1.71387,0.299995,2.783,3.28214
-1.69136,0.297623,2.761,3.25152
-1.6824,0.297623,2.761,3.24687
-1.6601,0.295252,2.739,3.2164
-1.62529,0.290617,2.696,3.1614
-1.61654,0.290617,2.696,3.15691
-1.57022,0.283825,2.633,3.07877
-1.53795,0.279514,2.593,3.02771
-1.52953,0.279514,2.593,3.02345
-1.48768,0.273369,2.536,2.95283
-1.45786,0.269381,2.499,2.90567
-1.44975,0.269381,2.499,2.90161
-1.42087,0.2655,2.463,2.85582
-1.3928,0.261727,2.428,2.81133
-1.38492,0.261727,2.428,2.80743
-1.35775,0.258062,2.394,2.76429
-1.3404,0.25623,2.377,2.74088
-1.33268,0.25623,2.377,2.73712
-1.32497,0.25623,2.377,2.73337
-1.31725,0.25623,2.377,2.72964
-1.30954,0.25623,2.377,2.72593
-1.32044,0.259895,2.411,2.76117
-1.31262,0.259895,2.411,2.75743
-1.31399,0.261727,2.428,2.77313
-1.31526,0.26356,2.445,2.7888
-1.30732,0.26356,2.445,2.78506
-1.31852,0.267441,2.481,2.8223
-1.32948,0.271321,2.517,2.85944
-1.33128,0.273369,2.536,2.87721
-1.32305,0.273369,2.536,2.87341
-1.33452,0.277465,2.574,2.91263
-1.33596,0.279514,2.593,2.93028
-1.32754,0.279514,2.593,2.92646
-1.33947,0.283825,2.633,2.96773
-1.34154,0.286089,2.654,2.98752
-1.34347,0.288353,2.675,3.00727
-1.33479,0.288353,2.675,3.00341
-1.3157,0.286089,2.654,2.97601
-1.30708,0.286089,2.654,2.97221
-1.2882,0.283825,2.633,2.94494
-1.26021,0.279514,2.593,2.89653
-1.25179,0.279514,2.593,2.89288
-1.23427,0.277465,2.574,2.86808
-1.20781,0.273369,2.536,2.82221
-1.19958,0.273369,2.536,2.81869
-1.18243,0.271321,2.517,2.79411
-1.15746,0.267441,2.481,2.75075
-1.14941,0.267441,2.481,2.74737
-1.12479,0.26356,2.445,2.70419
-1.10909,0.261727,2.428,2.68212
-1.0935,0.259895,2.411,2.66012
-1.08568,0.259895,2.411,2.65691
-1.07025,0.258062,2.394,2.63501
-1.06248,0.258062,2.394,2.63186
-1.05471,0.258062,2.394,2.62873
-1.03951,0.25623,2.377,2.60698
-1.03179,0.25623,2.377,2.60392
-1.02408,0.25623,2.377,2.60087
-1.01636,0.25623,2.377,2.59784
-1.00865,0.25623,2.377,2.59483
-1.00093,0.25623,2.377,2.59184
-0.993215,0.25623,2.377,2.58887
-0.9855,0.25623,2.377,2.58592
-0.984778,0.258062,2.394,2.60146
-0.983945,0.259895,2.411,2.61699
-0.976119,0.259895,2.411,2.61405
-0.968294,0.259895,2.411,2.61114
-0.960468,0.259895,2.411,2.60825
-0.952643,0.259895,2.411,2.60538
-0.951479,0.261727,2.428,2.62088
-0.943599,0.261727,2.428,2.61803
-0.935718,0.261727,2.428,2.6152
-0.927837,0.261727,2.428,2.61239
-0.919957,0.261727,2.428,2.6096
-0.912076,0.261727,2.428,2.60683
-0.897864,0.259895,2.411,2.58585
-0.890039,0.259895,2.411,2.58314
-0.882213,0.259895,2.411,2.58046
-0.874388,0.259895,2.411,2.57779
-0.866562,0.259895,2.411,2.57515
-0.858737,0.259895,2.411,2.57253
-0.850911,0.259895,2.411,2.56993
-0.843086,0.259895,2.411,2.56734
-0.83526,0.259895,2.411,2.56479
-0.833269,0.261727,2.428,2.58031
-0.825388,0.261727,2.428,2.57778
-0.817508,0.261727,2.428,2.57527
-0.809627,0.261727,2.428,2.57278
-0.801746,0.261727,2.428,2.57031
-0.799424,0.26356,2.445,2.58584
-0.791488,0.26356,2.445,2.5834
-0.783552,0.26356,2.445,2.58098
-0.781326,0.2655,2.463,2.59756
-0.773332,0.2655,2.463,2.59517
-0.765338,0.2655,2.463,2.5928
-0.757344,0.2655,2.463,2.59045
-0.749349,0.2655,2.463,2.58812
-0.741355,0.2655,2.463,2.58582
-0.733361,0.2655,2.463,2.58354
-0.725366,0.2655,2.463,2.58128
-0.717372,0.2655,2.463,2.57905
-0.709378,0.2655,2.463,2.57683
-0.701384,0.2655,2.463,2.57465
-0.693389,0.2655,2.463,2.57248
-0.685395,0.2655,2.463,2.57034
-0.677401,0.2655,2.463,2.56822
-0.669406,0.2655,2.463,2.56612
-0.661412,0.2655,2.463,2.56404
-0.653418,0.2655,2.463,2.56199
-0.645424,0.2655,2.463,2.55997
-0.637429,0.2655,2.463,2.55796
-0.629435,0.2655,2.463,2.55598
-0.621441,0.2655,2.463,2.55403
-0.613446,0.2655,2.463,2.55209
-0.605452,0.2655,2.463,2.55018
-0.597458,0.2655,2.463,2.5483
-0.589464,0.2655,2.463,2.54643
-0.581469,0.2655,2.463,2.5446
-0.573475,0.2655,2.463,2.54278
-0.565481,0.2655,2.463,2.54099
-0.557486,0.2655,2.463,2.53922
-0.549492,0.2655,2.463,2.53748
-0.545455,0.267441,2.481,2.55429
-0.537403,0.267441,2.481,2.55258
-0.52935,0.267441,2.481,2.5509
-0.521297,0.267441,2.481,2.54924
-0.513244,0.267441,2.481,2.54761
-0.508857,0.269381,2.499,2.56447
-0.500746,0.269381,2.499,2.56287
-0.492635,0.269381,2.499,2.5613
-0.484524,0.269381,2.499,2.55975
-0.476412,0.269381,2.499,2.55823
-0.468301,0.269381,2.499,2.55673
-0.46019,0.269381,2.499,2.55526
-0.452079,0.269381,2.499,2.55381
-0.443968,0.269381,2.499,2.55239
-0.435857,0.269381,2.499,2.55099
-0.427746,0.269381,2.499,2.54961
-0.422657,0.271321,2.517,2.56662
-0.414487,0.271321,2.517,2.56529
-0.406318,0.271321,2.517,2.56398
-0.398148,0.271321,2.517,2.5627
-0.389979,0.271321,2.517,2.56144
-0.381809,0.271321,2.517,2.56021
-0.37364,0.271321,2.517,2.55901
-0.36547,0.271321,2.517,2.55783
-0.357301,0.271321,2.517,2.55667
-0.349131,0.271321,2.517,2.55554
-0.338523,0.269381,2.499,2.53617
-0.330412,0.269381,2.499,2.5351
-0.322301,0.269381,2.499,2.53406
-0.31419,0.269381,2.499,2.53304
-0.306079,0.269381,2.499,2.53204
-0.297967,0.269381,2.499,2.53108
-0.287769,0.267441,2.481,2.51191
-0.279716,0.267441,2.481,2.511
-0.271663,0.267441,2.481,2.51012
-0.26361,0.267441,2.481,2.50926
-0.253704,0.2655,2.463,2.49023
-0.245709,0.2655,2.463,2.48942
-0.237715,0.2655,2.463,2.48865
-0.229721,0.2655,2.463,2.4879
-0.221726,0.2655,2.463,2.48717
-0.213732,0.2655,2.463,2.48647
-0.205738,0.2655,2.463,2.4858
-0.197744,0.2655,2.463,2.48515
-0.191136,0.267441,2.481,2.50268
-0.183083,0.267441,2.481,2.50208
-0.175031,0.267441,2.481,2.5015
-0.166978,0.267441,2.481,2.50095
-0.158925,0.267441,2.481,2.50043
-0.150872,0.267441,2.481,2.49993
-0.14282,0.267441,2.481,2.49946
-0.134767,0.267441,2.481,2.49901
-0.126714,0.267441,2.481,2.49859
-0.118662,0.267441,2.481,2.49819
-0.110609,0.267441,2.481,2.49782
-0.102556,0.267441,2.481,2.49748
-0.0945035,0.267441,2.481,2.49716
-0.0864508,0.267441,2.481,2.49687
-0.078398,0.267441,2.481,2.4966
-0.0708557,0.269381,2.499,2.51448
-0.0627446,0.269381,2.499,2.51426
-0.0542399,0.267441,2.481,2.49596
-0.0461872,0.267441,2.481,2.4958
-0.0381345,0.267441,2.481,2.49566
-0.0300818,0.267441,2.481,2.49555
-0.0220291,0.267441,2.481,2.49547
-0.0139764,0.267441,2.481,2.49541
-0.00592366,0.267441,2.481,2.49538
0.00212905,0.267441,2.481,2.49537
0.0101818,0.267441,2.481,2.49539
0.0182345,0.267441,2.481,2.49544
0.0262872,0.267441,2.481,2.49551
0.0343399,0.267441,2.481,2.49561
0.0423926,0.267441,2.481,2.49573
0.0500793,0.2655,2.463,2.47777
0.0580736,0.2655,2.463,2.47795
0.0660679,0.2655,2.463,2.47815
0.0746034,0.267441,2.481,2.49649
0.0826561,0.267441,2.481,2.49674
0.0907089,0.267441,2.481,2.49702
0.0987616,0.267441,2.481,2.49733
0.106814,0.267441,2.481,2.49766
0.114867,0.267441,2.481,2.49802
0.123811,0.269381,2.499,2.51652
0.131923,0.269381,2.499,2.51694
0.140034,0.269381,2.499,2.51737
0.148145,0.269381,2.499,2.51784
0.157382,0.271321,2.517,2.53647
0.165551,0.271321,2.517,2.53699
0.173721,0.271321,2.517,2.53753
0.18189,0.271321,2.517,2.53811
0.19006,0.271321,2.517,2.53871
0.198229,0.271321,2.517,2.53933
0.206399,0.271321,2.517,2.53998
0.214568,0.271321,2.517,2.54066
0.222738,0.271321,2.517,2.54136
0.230908,0.271321,2.517,2.54209
0.239077,0.271321,2.517,2.54285
0.247247,0.271321,2.517,2.54363
0.25359,0.269381,2.499,2.52624
0.261701,0.269381,2.499,2.52706
0.269812,0.269381,2.499,2.52792
0.277923,0.269381,2.499,2.5288
0.286034,0.269381,2.499,2.5297
0.292027,0.267441,2.481,2.5124
0.300079,0.267441,2.481,2.51335
0.308132,0.267441,2.481,2.51433
0.316185,0.267441,2.481,2.51532
0.321885,0.2655,2.463,2.49809
0.329879,0.2655,2.463,2.49914
0.337874,0.2655,2.463,2.5002
0.34334,0.26356,2.445,2.48302
0.351276,0.26356,2.445,2.48413
0.359212,0.26356,2.445,2.48526
0.367148,0.26356,2.445,2.48642
0.372476,0.261727,2.428,2.47031
0.380356,0.261727,2.428,2.47151
0.388237,0.261727,2.428,2.47273
0.396118,0.261727,2.428,2.47398
0.403999,0.261727,2.428,2.47526
0.411879,0.261727,2.428,2.47656
0.41976,0.261727,2.428,2.47788
0.427641,0.261727,2.428,2.47923
0.432472,0.259895,2.411,2.46323
0.440297,0.259895,2.411,2.46462
