-1.12555,-0.873185,2.593,2.95854
-1.11713,-0.873185,2.593,2.95535
-1.11727,-0.87992,2.613,2.97495
-1.10879,-0.87992,2.613,2.97177
-1.12641,-0.900799,2.675,3.03906
-1.11773,-0.900799,2.675,3.03585
-1.10905,-0.900799,2.675,3.03266
-1.07486,-0.87992,2.613,2.95928
-1.05047,-0.866787,2.574,2.91209
-1.04211,-0.866787,2.574,2.90909
-1.02613,-0.860389,2.555,2.88465
-1.01026,-0.853991,2.536,2.86029
-1.00203,-0.853991,2.536,2.85739
-0.993802,-0.853991,2.536,2.85451
-0.971191,-0.841531,2.499,2.81005
-0.96308,-0.841531,2.499,2.80726
-0.941212,-0.829408,2.463,2.76409
-0.926398,-0.823347,2.445,2.74119
-0.918462,-0.823347,2.445,2.73852
-0.904195,-0.817622,2.428,2.71685
-0.896315,-0.817622,2.428,2.71423
-0.888434,-0.817622,2.428,2.71164
-0.880553,-0.817622,2.428,2.70907
-0.872672,-0.817622,2.428,2.70652
-0.864792,-0.817622,2.428,2.70399
-0.862911,-0.823347,2.445,2.72039
-0.854975,-0.823347,2.445,2.71789
-0.847039,-0.823347,2.445,2.7154
-0.839103,-0.823347,2.445,2.71294
-0.831167,-0.823347,2.445,2.71049
-0.823232,-0.823347,2.445,2.70807
-0.821298,-0.829408,2.463,2.72559
-0.819247,-0.83547,2.481,2.74309
-0.811195,-0.83547,2.481,2.74069
-0.803142,-0.83547,2.481,2.73832
-0.800858,-0.841531,2.499,2.75582
-0.792747,-0.841531,2.499,2.75347
-0.784635,-0.841531,2.499,2.75115
-0.776524,-0.841531,2.499,2.74885
-0.768413,-0.841531,2.499,2.74657
-0.760302,-0.841531,2.499,2.74431
-0.757609,-0.847593,2.517,2.76182
-0.755097,-0.853991,2.536,2.78043
-0.746865,-0.853991,2.536,2.7782
-0.738634,-0.853991,2.536,2.776
-0.730403,-0.853991,2.536,2.77382
-0.722172,-0.853991,2.536,2.77167
-0.719289,-0.860389,2.555,2.79028
-0.716284,-0.866787,2.574,2.80889
-0.707929,-0.866787,2.574,2.80677
-0.699575,-0.866787,2.574,2.80467
-0.69122,-0.866787,2.574,2.8026
-0.687906,-0.873185,2.593,2.82123
-0.67949,-0.873185,2.593,2.81919
-0.67625,-0.87992,2.613,2.8389
-0.667768,-0.87992,2.613,2.83689
-0.659287,-0.87992,2.613,2.83491
-0.650806,-0.87992,2.613,2.83295
-0.642325,-0.87992,2.613,2.83101
-0.633844,-0.87992,2.613,2.8291
-0.620576,-0.873185,2.593,2.80557
-0.61216,-0.873185,2.593,2.80372
-0.603744,-0.873185,2.593,2.80189
-0.595327,-0.873185,2.593,2.80009
-0.582611,-0.866787,2.574,2.77781
-0.574256,-0.866787,2.574,2.77607
-0.565902,-0.866787,2.574,2.77435
-0.553431,-0.860389,2.555,2.7522
-0.545139,-0.860389,2.555,2.75054
-0.536846,-0.860389,2.555,2.74891
-0.528553,-0.860389,2.555,2.7473
-0.52026,-0.860389,2.555,2.74572
-0.50816,-0.853991,2.536,2.72375
-0.499929,-0.853991,2.536,2.72223
-0.491697,-0.853991,2.536,2.72073
-0.483466,-0.853991,2.536,2.71925
-0.471674,-0.847593,2.517,2.69744
-0.46019,-0.841531,2.499,2.67674
-0.452079,-0.841531,2.499,2.67536
-0.443968,-0.841531,2.499,2.674
-0.435857,-0.841531,2.499,2.67267
-0.427746,-0.841531,2.499,2.67136
-0.419634,-0.841531,2.499,2.67007
-0.411523,-0.841531,2.499,2.66881
-0.403412,-0.841531,2.499,2.66757
-0.395301,-0.841531,2.499,2.66635
-0.38719,-0.841531,2.499,2.66516
-0.379079,-0.841531,2.499,2.664
-0.370968,-0.841531,2.499,2.66285
-0.362857,-0.841531,2.499,2.66174
-0.354745,-0.841531,2.499,2.66064
-0.346634,-0.841531,2.499,2.65957
-0.336085,-0.83547,2.481,2.63938
-0.328032,-0.83547,2.481,2.63837
-0.319979,-0.83547,2.481,2.63738
-0.311927,-0.83547,2.481,2.63641
-0.301669,-0.829408,2.463,2.61635
-0.293675,-0.829408,2.463,2.61544
-0.285681,-0.829408,2.463,2.61456
-0.277686,-0.829408,2.463,2.61369
-0.269692,-0.829408,2.463,2.61286
-0.261698,-0.829408,2.463,2.61204
-0.253704,-0.829408,2.463,2.61125
-0.245709,-0.829408,2.463,2.61049
-0.237715,-0.829408,2.463,2.60975
-0.229721,-0.829408,2.463,2.60903
-0.220106,-0.823347,2.445,2.58928
-0.21217,-0.823347,2.445,2.58862
-0.204234,-0.823347,2.445,2.58798
-0.196298,-0.823347,2.445,2.58737
-0.188363,-0.823347,2.445,2.58678
-0.180427,-0.823347,2.445,2.58621
-0.172491,-0.823347,2.445,2.58567
-0.163411,-0.817622,2.428,2.56718
-0.15553,-0.817622,2.428,2.56669
-0.147649,-0.817622,2.428,2.56622
-0.139769,-0.817622,2.428,2.56578
-0.131888,-0.817622,2.428,2.56536
-0.124007,-0.817622,2.428,2.56497
-0.116127,-0.817622,2.428,2.5646
-0.108246,-0.817622,2.428,2.56426
-0.100365,-0.817622,2.428,2.56394
-0.0924847,-0.817622,2.428,2.56364
-0.084604,-0.817622,2.428,2.56337
-0.0772605,-0.823347,2.445,2.58106
-0.0693246,-0.823347,2.445,2.58084
-0.0613887,-0.823347,2.445,2.58064
-0.0534529,-0.823347,2.445,2.58046
-0.045517,-0.823347,2.445,2.58031
-0.0378578,-0.829408,2.463,2.59918
-0.0298635,-0.829408,2.463,2.59907
-0.0218693,-0.829408,2.463,2.59899
-0.013875,-0.829408,2.463,2.59894
-0.00588068,-0.829408,2.463,2.59891
0.00212905,-0.83547,2.481,2.6179
0.0101818,-0.83547,2.481,2.61791
0.0182345,-0.83547,2.481,2.61796
0.0264779,-0.841531,2.499,2.63702
0.0343399,-0.83547,2.481,2.61812
0.0423926,-0.83547,2.481,2.61824
0.0504453,-0.83547,2.481,2.61838
0.058498,-0.83547,2.481,2.61855
0.0665507,-0.83547,2.481,2.61874
0.0740622,-0.829408,2.463,2.59996
0.0820565,-0.829408,2.463,2.6002
0.0900507,-0.829408,2.463,2.60046
0.098045,-0.829408,2.463,2.60075
0.106039,-0.829408,2.463,2.60106
0.1132,-0.823347,2.445,2.58239
0.121136,-0.823347,2.445,2.58275
0.129072,-0.823347,2.445,2.58313
0.137008,-0.823347,2.445,2.58354
0.144944,-0.823347,2.445,2.58398
0.15288,-0.823347,2.445,2.58443
0.160815,-0.823347,2.445,2.58492
0.168751,-0.823347,2.445,2.58542
0.176687,-0.823347,2.445,2.58595
0.184623,-0.823347,2.445,2.58651
0.192559,-0.823347,2.445,2.58708
0.200495,-0.823347,2.445,2.58769
0.208431,-0.823347,2.445,2.58831
0.216366,-0.823347,2.445,2.58897
0.224302,-0.823347,2.445,2.58964
0.233948,-0.829408,2.463,2.60941
0.241942,-0.829408,2.463,2.61014
0.249936,-0.829408,2.463,2.61089
0.257931,-0.829408,2.463,2.61167
0.265925,-0.829408,2.463,2.61247
0.273919,-0.829408,2.463,2.6133
0.283974,-0.83547,2.481,2.63325
0.292027,-0.83547,2.481,2.63413
0.300079,-0.83547,2.481,2.63504
0.308132,-0.83547,2.481,2.63597
0.316185,-0.83547,2.481,2.63692
0.324237,-0.83547,2.481,2.6379
0.334701,-0.841531,2.499,2.65804
0.342812,-0.841531,2.499,2.65908
0.350923,-0.841531,2.499,2.66014
0.359034,-0.841531,2.499,2.66122
0.367146,-0.841531,2.499,2.66232
0.37796,-0.847593,2.517,2.68264
0.386129,-0.847593,2.517,2.6838
0.394299,-0.847593,2.517,2.68499
0.402468,-0.847593,2.517,2.6862
0.410638,-0.847593,2.517,2.68744
0.421969,-0.853991,2.536,2.70899
0.4302,-0.853991,2.536,2.71029
0.438431,-0.853991,2.536,2.71161
0.446662,-0.853991,2.536,2.71295
0.454894,-0.853991,2.536,2.71432
0.463125,-0.853991,2.536,2.71571
0.471356,-0.853991,2.536,2.71713
0.479587,-0.853991,2.536,2.71857
0.487819,-0.853991,2.536,2.72003
0.49605,-0.853991,2.536,2.72152
0.504281,-0.853991,2.536,2.72303
0.512512,-0.853991,2.536,2.72457
0.520743,-0.853991,2.536,2.72613
0.528975,-0.853991,2.536,2.72771
0.537206,-0.853991,2.536,2.72932
0.545437,-0.853991,2.536,2.73095
0.553668,-0.853991,2.536,2.73261
0.5619,-0.853991,2.536,2.73429
0.570131,-0.853991,2.536,2.73599
0.578362,-0.853991,2.536,2.73772
0.586593,-0.853991,2.536,2.73947
0.594824,-0.853991,2.536,2.74124
0.603056,-0.853991,2.536,2.74304
0.611287,-0.853991,2.536,2.74486
0.62416,-0.860389,2.555,2.76729
0.632453,-0.860389,2.555,2.76917
0.640746,-0.860389,2.555,2.77107
0.649038,-0.860389,2.555,2.773
0.657331,-0.860389,2.555,2.77496
0.665624,-0.860389,2.555,2.77693
0.673917,-0.860389,2.555,2.77893
0.68221,-0.860389,2.555,2.78095
0.690503,-0.860389,2.555,2.783
0.698796,-0.860389,2.555,2.78507
0.707089,-0.860389,2.555,2.78716
0.710062,-0.853991,2.536,2.76853
0.718293,-0.853991,2.536,2.77066
0.726524,-0.853991,2.536,2.7728
0.734755,-0.853991,2.536,2.77497
0.742987,-0.853991,2.536,2.77716
0.74559,-0.847593,2.517,2.75855
0.753759,-0.847593,2.517,2.76077
0.761929,-0.847593,2.517,2.76301
0.770098,-0.847593,2.517,2.76528
0.784143,-0.853991,2.536,2.78845
0.786437,-0.847593,2.517,2.76987
0.794607,-0.847593,2.517,2.7722
0.808836,-0.853991,2.536,2.7955
0.810946,-0.847593,2.517,2.77693
0.819116,-0.847593,2.517,2.77933
0.827285,-0.847593,2.517,2.78174
0.835455,-0.847593,2.517,2.78419
0.849993,-0.853991,2.536,2.80768
0.858224,-0.853991,2.536,2.81019
0.866455,-0.853991,2.536,2.81271
0.874686,-0.853991,2.536,2.81526
0.889532,-0.860389,2.555,2.83894
0.904502,-0.866787,2.574,2.86268
0.912856,-0.866787,2.574,2.86533
0.921211,-0.866787,2.574,2.868
0.936427,-0.873185,2.593,2.89189
0.944843,-0.873185,2.593,2.89462
0.960612,-0.87992,2.613,2.91973
0.976511,-0.886655,2.633,2.9449
nan,nan,nan,NaN
nan,nan,nan,NaN
nan,nan,nan,NaN
nan,nan,nan,NaN
nan,nan,nan,NaN
nan,nan,nan,NaN
nan,nan,nan,NaN
nan,nan,nan,NaN
nan,nan,nan,NaN
nan,nan,nan,NaN
nan,nan,nan,NaN
nan,nan,nan,NaN
nan,nan,nan,NaN
nan,nan,nan,NaN
nan,nan,nan,NaN
nan,nan,nan,NaN
nan,nan,nan,NaN
nan,nan,nan,NaN
nan,nan,nan,NaN
nan,nan,nan,NaN
nan,nan,nan,NaN
nan,nan,nan,NaN
1.43905,-1.08769,3.23,3.69957
1.44953,-1.08769,3.23,3.70366
1.46002,-1.08769,3.23,3.70778
1.48416,-1.0978,3.26,3.7464
1.49474,-1.0978,3.26,3.7506
1.50532,-1.0978,3.26,3.75483
1.50195,-1.08769,3.23,3.72449
1.51244,-1.08769,3.23,3.72873
1.52292,-1.08769,3.23,3.733
1.5334,-1.08769,3.23,3.73729
1.54389,-1.08769,3.23,3.7416
1.55437,-1.08769,3.23,3.74594
1.56485,-1.08769,3.23,3.7503
1.57534,-1.08769,3.23,3.75469
1.58582,-1.08769,3.23,3.7591
1.59631,-1.08769,3.23,3.76353
1.60679,-1.08769,3.23,3.76799
nan,nan,nan,NaN
nan,nan,nan,NaN
nan,nan,nan,NaN
1.64872,-1.08769,3.23,3.78606
1.65921,-1.08769,3.23,3.79064
1.66969,-1.08769,3.23,3.79524
1.69578,-1.0978,3.26,3.83516
1.70636,-1.0978,3.26,3.83985
1.71694,-1.0978,3.26,3.84456
nan,nan,nan,NaN
nan,nan,nan,NaN
nan,nan,nan,NaN
1.86612,-1.16447,3.458,4.09831
1.87734,-1.16447,3.458,4.10344
1.92734,-1.18838,3.529,4.19294
1.9388,-1.18838,3.529,4.19822
1.9707,-1.20084,3.566,4.24759
1.98227,-1.20084,3.566,4.25297
1.99385,-1.20084,3.566,4.25838
2.00542,-1.20084,3.566,4.26381
2.017,-1.20084,3.566,4.26927
2.02857,-1.20084,3.566,4.27475
2.04015,-1.20084,3.566,4.28025
2.05172,-1.20084,3.566,4.28578
2.06329,-1.20084,3.566,4.29134
2.05334,-1.18838,3.529,4.25233
2.04373,-1.17626,3.493,4.21444
2.05507,-1.17626,3.493,4.21995
2.0457,-1.16447,3.458,4.18314
2.03611,-1.15269,3.423,4.14624
2.04722,-1.15269,3.423,4.15171
2.03788,-1.14124,3.389,4.11591
2.02893,-1.13012,3.356,4.08123
2.03982,-1.13012,3.356,4.08666
2.03116,-1.11935,3.324,4.05309
2.00264,-1.0978,3.26,3.98036
2.01322,-1.0978,3.26,3.9857
2.00517,-1.08769,3.23,3.95433
1.97821,-1.06749,3.17,3.8861
1.9885,-1.06749,3.17,3.89135
1.96222,-1.04796,3.112,3.82532
1.95458,-1.03853,3.084,3.79605
1.93019,-1.02034,3.03,3.73465
1.94002,-1.02034,3.03,3.73974
1.93248,-1.01125,3.003,3.71149
1.92541,-1.0025,2.977,3.68439
1.93508,-1.0025,2.977,3.68945
1.91142,-0.985322,2.926,3.63124
1.90451,-0.976903,2.901,3.60517
1.91392,-0.976903,2.901,3.61016
1.90743,-0.968822,2.877,3.58525
1.90077,-0.96074,2.853,3.56028
1.91004,-0.96074,2.853,3.56523
1.90315,-0.952658,2.829,3.54017
1.89678,-0.944912,2.806,3.51629
1.90589,-0.944912,2.806,3.52121
-2.35106,-1.13024,3.389,4.27671
-2.34006,-1.13024,3.389,4.27067
-2.30638,-1.11923,3.356,4.22313
-2.29549,-1.11923,3.356,4.21719
-2.2846,-1.11923,3.356,4.21127
-2.25202,-1.10856,3.324,4.16527
-2.24123,-1.10856,3.324,4.15945
-2.23045,-1.10856,3.324,4.15365
-2.21966,-1.10856,3.324,4.14786
-2.20887,-1.10856,3.324,4.1421
-2.19808,-1.10856,3.324,4.13636
-2.18729,-1.10856,3.324,4.13063
-2.1765,-1.10856,3.324,4.12493
-2.16571,-1.10856,3.324,4.11925
-2.15492,-1.10856,3.324,4.11358
-2.14413,-1.10856,3.324,4.10794
-2.13335,-1.10856,3.324,4.10232
-2.14299,-1.11923,3.356,4.13616
-2.11177,-1.10856,3.324,4.09114
-2.10098,-1.10856,3.324,4.08558
-2.09019,-1.10856,3.324,4.08005
-2.0794,-1.10856,3.324,4.07453
-2.0487,-1.09789,3.292,4.02986
-2.03801,-1.09789,3.292,4.02444
-2.02733,-1.09789,3.292,4.01904
-2.01664,-1.09789,3.292,4.01366
-2.00596,-1.09789,3.292,4.0083
-1.99527,-1.09789,3.292,4.00297
-1.98459,-1.09789,3.292,3.99765
nan,nan,nan,NaN
nan,nan,nan,NaN
nan,nan,nan,NaN
nan,nan,nan,NaN
nan,nan,nan,NaN
nan,nan,nan,NaN
nan,nan,nan,NaN
nan,nan,nan,NaN
nan,nan,nan,NaN
nan,nan,nan,NaN
nan,nan,nan,NaN
nan,nan,nan,NaN
nan,nan,nan,NaN
nan,nan,nan,NaN
nan,nan,nan,NaN
nan,nan,nan,NaN
nan,nan,nan,NaN
nan,nan,nan,NaN
nan,nan,nan,NaN
nan,nan,nan,NaN
nan,nan,nan,NaN
nan,nan,nan,NaN
nan,nan,nan,NaN
nan,nan,nan,NaN
nan,nan,nan,NaN
nan,nan,nan,NaN
nan,nan,nan,NaN
nan,nan,nan,NaN
-1.33947,-0.878112,2.633,3.08188
-1.3011,-0.858435,2.574,3.0092
-1.29275,-0.858435,2.574,3.00559
-1.27491,-0.852098,2.555,2.97985
-1.24778,-0.839425,2.517,2.93204
-1.23961,-0.839425,2.517,2.92858
-1.23144,-0.839425,2.517,2.92513
-1.20578,-0.827419,2.481,2.87991
-1.19772,-0.827419,2.481,2.87655
-1.18104,-0.821416,2.463,2.85236
-1.16447,-0.815413,2.445,2.82824
-1.15654,-0.815413,2.445,2.82498
-1.1486,-0.815413,2.445,2.82174
-1.14067,-0.815413,2.445,2.81852
-1.13273,-0.815413,2.445,2.81532
-1.12479,-0.815413,2.445,2.81213
-1.11686,-0.815413,2.445,2.80897
-1.10892,-0.815413,2.445,2.80582
-1.1172,-0.827419,2.481,2.84396
-1.10914,-0.827419,2.481,2.84081
-1.11707,-0.839425,2.517,2.87885
nan,nan,nan,NaN
nan,nan,nan,NaN
-1.12555,-0.864772,2.593,2.95607
-1.11713,-0.864772,2.593,2.95287
-1.11727,-0.871441,2.613,2.97245
-1.10879,-0.871441,2.613,2.96927
nan,nan,nan,NaN
nan,nan,nan,NaN
nan,nan,nan,NaN
-1.07486,-0.871441,2.613,2.95677
-1.05047,-0.858435,2.574,2.90962
-1.04211,-0.858435,2.574,2.90661
-1.02613,-0.852098,2.555,2.88219
-1.01026,-0.845762,2.536,2.85784
-1.00203,-0.845762,2.536,2.85494
-0.993802,-0.845762,2.536,2.85206
-0.971191,-0.833422,2.499,2.80763
-0.96308,-0.833422,2.499,2.80484
-0.941212,-0.821416,2.463,2.7617
-0.926398,-0.815413,2.445,2.73882
-0.918462,-0.815413,2.445,2.73615
-0.910526,-0.815413,2.445,2.73349
-0.896315,-0.809744,2.428,2.71187
-0.888434,-0.809744,2.428,2.70928
-0.880553,-0.809744,2.428,2.7067
-0.872672,-0.809744,2.428,2.70415
-0.870847,-0.815413,2.445,2.72053
-0.869264,-0.821416,2.463,2.73801
-0.861269,-0.821416,2.463,2.73549
-0.847039,-0.815413,2.445,2.71301
-0.839103,-0.815413,2.445,2.71054
-0.831167,-0.815413,2.445,2.70809
-0.823232,-0.815413,2.445,2.70567
-0.8273,-0.827419,2.481,2.74307
-0.819247,-0.827419,2.481,2.74065
-0.811195,-0.827419,2.481,2.73825
-0.803142,-0.827419,2.481,2.73588
-0.800858,-0.833422,2.499,2.75336
-0.792747,-0.833422,2.499,2.75101
-0.784635,-0.833422,2.499,2.74868
-0.776524,-0.833422,2.499,2.74638
-0.768413,-0.833422,2.499,2.74409
-0.760302,-0.833422,2.499,2.74183
-0.757609,-0.839425,2.517,2.75933
-0.755097,-0.845762,2.536,2.77791
-0.746865,-0.845762,2.536,2.77568
-0.738634,-0.845762,2.536,2.77348
-0.730403,-0.845762,2.536,2.7713
-0.722172,-0.845762,2.536,2.76914
-0.719289,-0.852098,2.555,2.78774
-0.716284,-0.858435,2.574,2.80632
-0.707929,-0.858435,2.574,2.8042
-0.699575,-0.858435,2.574,2.8021
-0.69122,-0.858435,2.574,2.80003
-0.687906,-0.864772,2.593,2.81863
-0.67949,-0.864772,2.593,2.81659
-0.671074,-0.864772,2.593,2.81457
-0.667768,-0.871441,2.613,2.83427
-0.659287,-0.871441,2.613,2.83229
-0.650806,-0.871441,2.613,2.83032
-0.642325,-0.871441,2.613,2.82838
-0.628992,-0.864772,2.593,2.80484
-0.620576,-0.864772,2.593,2.80296
-0.61216,-0.864772,2.593,2.80111
-0.603744,-0.864772,2.593,2.79928
-0.595327,-0.864772,2.593,2.79748
-0.582611,-0.858435,2.574,2.77522
-0.574256,-0.858435,2.574,2.77347
-0.561724,-0.852098,2.555,2.7513
-0.553431,-0.852098,2.555,2.74962
-0.545139,-0.852098,2.555,2.74796
-0.536846,-0.852098,2.555,2.74632
-0.524622,-0.845762,2.536,2.7243
-0.516391,-0.845762,2.536,2.72273
-0.50816,-0.845762,2.536,2.72118
-0.496183,-0.839425,2.517,2.69928
-0.488013,-0.839425,2.517,2.69779
-0.479844,-0.839425,2.517,2.69633
-0.468301,-0.833422,2.499,2.67561
-0.46019,-0.833422,2.499,2.6742
-0.452079,-0.833422,2.499,2.67282
-0.443968,-0.833422,2.499,2.67146
-0.432717,-0.827419,2.481,2.65089
-0.424665,-0.827419,2.481,2.64959
-0.416612,-0.827419,2.481,2.64831
-0.408559,-0.827419,2.481,2.64706
-0.403412,-0.833422,2.499,2.66502
-0.395301,-0.833422,2.499,2.66381
-0.38719,-0.833422,2.499,2.66261
-0.379079,-0.833422,2.499,2.66145
-0.370968,-0.833422,2.499,2.6603
-0.362857,-0.833422,2.499,2.65918
-0.354745,-0.833422,2.499,2.65809
-0.346634,-0.833422,2.499,2.65702
-0.336085,-0.827419,2.481,2.63684
-0.328032,-0.827419,2.481,2.63583
-0.319979,-0.827419,2.481,2.63484
-0.311927,-0.827419,2.481,2.63387
-0.301669,-0.821416,2.463,2.61383
-0.293675,-0.821416,2.463,2.61292
-0.285681,-0.821416,2.463,2.61203
-0.277686,-0.821416,2.463,2.61117
-0.269692,-0.821416,2.463,2.61033
-0.261698,-0.821416,2.463,2.60952
-0.253704,-0.821416,2.463,2.60873
-0.245709,-0.821416,2.463,2.60796
-0.237715,-0.821416,2.463,2.60722
-0.228042,-0.815413,2.445,2.58746
-0.220106,-0.815413,2.445,2.58677
-0.21217,-0.815413,2.445,2.58611
-0.204234,-0.815413,2.445,2.58547
-0.196298,-0.815413,2.445,2.58485
-0.187053,-0.809744,2.428,2.56629
-0.179172,-0.809744,2.428,2.56573
-0.171292,-0.809744,2.428,2.56519
-0.163411,-0.809744,2.428,2.56468
-0.15553,-0.809744,2.428,2.56419
-0.147649,-0.809744,2.428,2.56372
-0.139769,-0.809744,2.428,2.56328
-0.131888,-0.809744,2.428,2.56286
-0.124007,-0.809744,2.428,2.56247
-0.116127,-0.809744,2.428,2.5621
-0.108246,-0.809744,2.428,2.56175
-0.100365,-0.809744,2.428,2.56143
-0.0924847,-0.809744,2.428,2.56114
-0.084604,-0.809744,2.428,2.56086
-0.0767233,-0.809744,2.428,2.56062
-0.0688426,-0.809744,2.428,2.56039
-0.0609619,-0.809744,2.428,2.56019
-0.0530812,-0.809744,2.428,2.56002
-0.0452005,-0.809744,2.428,2.55987
-0.0375812,-0.815413,2.445,2.57766
-0.0296453,-0.815413,2.445,2.57756
-0.0217094,-0.815413,2.445,2.57748
-0.0137736,-0.815413,2.445,2.57742
-0.00588068,-0.821416,2.463,2.59637
0.0021136,-0.821416,2.463,2.59636
0.0101079,-0.821416,2.463,2.59638
0.0181022,-0.821416,2.463,2.59642
0.0260965,-0.821416,2.463,2.59649
0.0340907,-0.821416,2.463,2.59659
0.042085,-0.821416,2.463,2.5967
0.0500793,-0.821416,2.463,2.59684
0.0580736,-0.821416,2.463,2.59701
0.0660679,-0.821416,2.463,2.5972
0.0735209,-0.815413,2.445,2.57844
0.0814568,-0.815413,2.445,2.57867
0.0893926,-0.815413,2.445,2.57894
0.0966518,-0.809744,2.428,2.56129
0.104532,-0.809744,2.428,2.5616
0.112413,-0.809744,2.428,2.56193
0.120294,-0.809744,2.428,2.56229
0.128175,-0.809744,2.428,2.56267
0.136055,-0.809744,2.428,2.56308
0.143936,-0.809744,2.428,2.56351
0.151817,-0.809744,2.428,2.56397
0.159697,-0.809744,2.428,2.56444
0.167578,-0.809744,2.428,2.56495
0.175459,-0.809744,2.428,2.56547
0.183339,-0.809744,2.428,2.56602
0.19122,-0.809744,2.428,2.5666
0.199101,-0.809744,2.428,2.5672
0.206981,-0.809744,2.428,2.56782
0.214862,-0.809744,2.428,2.56847
0.222743,-0.809744,2.428,2.56914
0.230623,-0.809744,2.428,2.56984
0.238504,-0.809744,2.428,2.57056
0.246385,-0.809744,2.428,2.5713
0.256046,-0.815413,2.445,2.59007
0.265925,-0.821416,2.463,2.60994
0.273919,-0.821416,2.463,2.61077
0.281914,-0.821416,2.463,2.61162
0.289908,-0.821416,2.463,2.6125
0.297902,-0.821416,2.463,2.6134
0.305896,-0.821416,2.463,2.61432
0.316185,-0.827419,2.481,2.63438
0.324237,-0.827419,2.481,2.63536
0.33229,-0.827419,2.481,2.63636
0.342812,-0.833422,2.499,2.65652
0.350923,-0.833422,2.499,2.65758
0.359034,-0.833422,2.499,2.65866
0.367146,-0.833422,2.499,2.65977
0.375257,-0.833422,2.499,2.6609
0.383368,-0.833422,2.499,2.66206
0.394299,-0.839425,2.517,2.68242
0.402468,-0.839425,2.517,2.68364
0.410638,-0.839425,2.517,2.68487
0.418807,-0.839425,2.517,2.68614
0.426977,-0.839425,2.517,2.68742
0.435146,-0.839425,2.517,2.68873
0.443316,-0.839425,2.517,2.69007
0.451486,-0.839425,2.517,2.69142
0.459655,-0.839425,2.517,2.69281
0.467825,-0.839425,2.517,2.69421
0.475994,-0.839425,2.517,2.69564
0.484164,-0.839425,2.517,2.6971
0.492333,-0.839425,2.517,2.69858
0.500503,-0.839425,2.517,2.70008
0.508672,-0.839425,2.517,2.70161
0.516842,-0.839425,2.517,2.70316
0.525012,-0.839425,2.517,2.70473
0.537206,-0.845762,2.536,2.72676
0.545437,-0.845762,2.536,2.72839
0.553668,-0.845762,2.536,2.73005
0.5619,-0.845762,2.536,2.73173
0.570131,-0.845762,2.536,2.73343
0.578362,-0.845762,2.536,2.73516
0.586593,-0.845762,2.536,2.73691
0.594824,-0.845762,2.536,2.73869
0.603056,-0.845762,2.536,2.74049
0.611287,-0.845762,2.536,2.74231
0.619518,-0.845762,2.536,2.74416
0.627749,-0.845762,2.536,2.74603
0.640746,-0.852098,2.555,2.76851
0.649038,-0.852098,2.555,2.77044
0.657331,-0.852098,2.555,2.7724
0.665624,-0.852098,2.555,2.77437
0.673917,-0.852098,2.555,2.77638
0.68221,-0.852098,2.555,2.7784
0.690503,-0.852098,2.555,2.78045
0.698796,-0.852098,2.555,2.78252
0.707089,-0.852098,2.555,2.78461
0.710062,-0.845762,2.536,2.76601
0.718293,-0.845762,2.536,2.76813
0.726524,-0.845762,2.536,2.77028
0.734755,-0.845762,2.536,2.77245
0.742987,-0.845762,2.536,2.77464
0.74559,-0.839425,2.517,2.75605
0.753759,-0.839425,2.517,2.75827
0.761929,-0.839425,2.517,2.76052
0.770098,-0.839425,2.517,2.76278
0.784143,-0.845762,2.536,2.78594
0.786437,-0.839425,2.517,2.76738
0.794607,-0.839425,2.517,2.76972
0.808836,-0.845762,2.536,2.793
0.810946,-0.839425,2.517,2.77445
0.819116,-0.839425,2.517,2.77685
0.827285,-0.839425,2.517,2.77927
0.835455,-0.839425,2.517,2.78171
0.849993,-0.845762,2.536,2.80519
0.858224,-0.845762,2.536,2.8077
0.866455,-0.845762,2.536,2.81022
0.874686,-0.845762,2.536,2.81277
0.889532,-0.852098,2.555,2.83644
0.904502,-0.858435,2.574,2.86016
0.912856,-0.858435,2.574,2.86281
0.921211,-0.858435,2.574,2.86549
0.936427,-0.864772,2.593,2.88936
0.944843,-0.864772,2.593,2.89209
0.960612,-0.871441,2.613,2.91718
0.976511,-0.878112,2.633,2.94234
nan,nan,nan,NaN
nan,nan,nan,NaN
nan,nan,nan,NaN
nan,nan,nan,NaN
nan,nan,nan,NaN
nan,nan,nan,NaN
nan,nan,nan,NaN
nan,nan,nan,NaN
nan,nan,nan,NaN
nan,nan,nan,NaN
nan,nan,nan,NaN
nan,nan,nan,NaN
nan,nan,nan,NaN
nan,nan,nan,NaN
nan,nan,nan,NaN
nan,nan,nan,NaN
nan,nan,nan,NaN
nan,nan,nan,NaN
nan,nan,nan,NaN
nan,nan,nan,NaN
nan,nan,nan,NaN
nan,nan,nan,NaN
nan,nan,nan,NaN
nan,nan,nan,NaN
nan,nan,nan,NaN
1.48416,-1.08722,3.26,3.74331
1.49474,-1.08722,3.26,3.74752
1.50532,-1.08722,3.26,3.75175
1.50195,-1.07721,3.23,3.72144
1.51244,-1.07721,3.23,3.72569
1.52292,-1.07721,3.23,3.72996
1.5334,-1.07721,3.23,3.73425
1.54389,-1.07721,3.23,3.73857
1.55437,-1.07721,3.23,3.74291
1.56485,-1.07721,3.23,3.74727
1.56022,-1.06687,3.199,3.71566
1.5706,-1.06687,3.199,3.72003
1.58099,-1.06687,3.199,3.72442
1.59137,-1.06687,3.199,3.72884
nan,nan,nan,NaN
nan,nan,nan,NaN
nan,nan,nan,NaN
1.6329,-1.06687,3.199,3.74676
1.64328,-1.06687,3.199,3.75129
1.65367,-1.06687,3.199,3.75585
1.68018,-1.07721,3.23,3.79688
1.70636,-1.08722,3.26,3.83684
1.71694,-1.08722,3.26,3.84155
nan,nan,nan,NaN
nan,nan,nan,NaN
nan,nan,nan,NaN
1.86612,-1.15325,3.458,4.09514
1.87734,-1.15325,3.458,4.10027
1.92734,-1.17693,3.529,4.18971
1.9388,-1.17693,3.529,4.19499
1.9707,-1.18927,3.566,4.24433
1.98227,-1.18927,3.566,4.24972
1.99385,-1.18927,3.566,4.25513
2.00542,-1.18927,3.566,4.26057
2.017,-1.18927,3.566,4.26603
2.02857,-1.18927,3.566,4.27151
2.04015,-1.18927,3.566,4.27702
2.05172,-1.18927,3.566,4.28255
2.06329,-1.18927,3.566,4.28811
2.05334,-1.17693,3.529,4.24914
2.04373,-1.16492,3.493,4.21129
2.05507,-1.16492,3.493,4.2168
2.0457,-1.15325,3.458,4.18003
2.03611,-1.14158,3.423,4.14317
2.04722,-1.14158,3.423,4.14864
2.03788,-1.13024,3.389,4.11287
2.00958,-1.10856,3.324,4.03935
2.02037,-1.10856,3.324,4.04472
2.03116,-1.10856,3.324,4.05012
2.00264,-1.08722,3.26,3.97746
2.01322,-1.08722,3.26,3.9828
2.00517,-1.07721,3.23,3.95146
1.97821,-1.0572,3.17,3.88329
1.9885,-1.0572,3.17,3.88854
1.96222,-1.03786,3.112,3.82257
1.95458,-1.02852,3.084,3.79332
1.93019,-1.01051,3.03,3.73198
1.94002,-1.01051,3.03,3.73707
1.93248,-1.00151,3.003,3.70884
1.92541,-0.992836,2.977,3.68178
1.93508,-0.992836,2.977,3.68684
1.91142,-0.975828,2.926,3.62867
1.90451,-0.96749,2.901,3.60264
1.91392,-0.96749,2.901,3.60762
1.90743,-0.959486,2.877,3.58274
1.90077,-0.951482,2.853,3.55779
1.91004,-0.951482,2.853,3.56275
1.90315,-0.943478,2.829,3.53771
1.89678,-0.935808,2.806,3.51385
1.90589,-0.935808,2.806,3.51878
-2.37465,-1.13047,3.423,4.31669
-2.36354,-1.13047,3.423,4.31059
-2.32906,-1.11924,3.389,4.26175
-2.31806,-1.11924,3.389,4.25575
-2.30706,-1.11924,3.389,4.24977
-2.25202,-1.09778,3.324,4.16242
-2.24123,-1.09778,3.324,4.15659
-2.23045,-1.09778,3.324,4.15078
-2.21966,-1.09778,3.324,4.14499
-2.20887,-1.09778,3.324,4.13923
-2.19808,-1.09778,3.324,4.13348
-2.18729,-1.09778,3.324,4.12775
-2.1765,-1.09778,3.324,4.12204
-2.16571,-1.09778,3.324,4.11636
-2.15492,-1.09778,3.324,4.11069
-2.14413,-1.09778,3.324,4.10505
-2.13335,-1.09778,3.324,4.09942
-2.14299,-1.10834,3.356,4.13323
-2.1321,-1.10834,3.356,4.12759
-2.10098,-1.09778,3.324,4.08267
-2.09019,-1.09778,3.324,4.07713
-2.0794,-1.09778,3.324,4.07161
-2.06861,-1.09778,3.324,4.06611
-2.05782,-1.09778,3.324,4.06063
-2.04703,-1.09778,3.324,4.05517
-2.03625,-1.09778,3.324,4.04974
-2.02546,-1.09778,3.324,4.04432
-2.01467,-1.09778,3.324,4.03893
-2.00388,-1.09778,3.324,4.03356
nan,nan,nan,NaN
nan,nan,nan,NaN
nan,nan,nan,NaN
nan,nan,nan,NaN
nan,nan,nan,NaN
nan,nan,nan,NaN
nan,nan,nan,NaN
nan,nan,nan,NaN
nan,nan,nan,NaN
nan,nan,nan,NaN
nan,nan,nan,NaN
nan,nan,nan,NaN
nan,nan,nan,NaN
nan,nan,nan,NaN
nan,nan,nan,NaN
nan,nan,nan,NaN
nan,nan,nan,NaN
nan,nan,nan,NaN
nan,nan,nan,NaN
nan,nan,nan,NaN
nan,nan,nan,NaN
nan,nan,nan,NaN
nan,nan,nan,NaN
nan,nan,nan,NaN
nan,nan,nan,NaN
nan,nan,nan,NaN
nan,nan,nan,NaN
nan,nan,nan,NaN
-1.33947,-0.869568,2.633,3.07945
-1.31071,-0.856358,2.593,3.02902
-1.30229,-0.856358,2.593,3.02539
-1.28439,-0.850083,2.574,2.99963
-1.26662,-0.843808,2.555,2.97395
-1.25833,-0.843808,2.555,2.97043
-1.23144,-0.831258,2.517,2.9228
-1.20578,-0.819369,2.481,2.87761
-1.19772,-0.819369,2.481,2.87424
-1.18104,-0.813424,2.463,2.85007
-1.15638,-0.801865,2.428,2.80631
-1.1485,-0.801865,2.428,2.80307
-1.1486,-0.80748,2.445,2.81946
-1.14067,-0.80748,2.445,2.81623
-1.13273,-0.80748,2.445,2.81303
-1.12479,-0.80748,2.445,2.80984
-1.11686,-0.80748,2.445,2.80667
-1.10892,-0.80748,2.445,2.80353
-1.1172,-0.819369,2.481,2.84163
-1.10914,-0.819369,2.481,2.83847
-1.11707,-0.831258,2.517,2.87648
nan,nan,nan,NaN
nan,nan,nan,NaN
-1.12555,-0.856358,2.593,2.95362
-1.11713,-0.856358,2.593,2.95042
-1.11727,-0.862963,2.613,2.96998
-1.10879,-0.862963,2.613,2.9668
nan,nan,nan,NaN
nan,nan,nan,NaN
nan,nan,nan,NaN
-1.05882,-0.850083,2.574,2.91019
-1.04271,-0.843808,2.555,2.8857
-1.03442,-0.843808,2.555,2.88272
-1.0185,-0.837533,2.536,2.85834
-1.0027,-0.831258,2.517,2.83402
-0.994526,-0.831258,2.517,2.83114
-0.986356,-0.831258,2.517,2.82828
-0.964196,-0.819369,2.481,2.78503
-0.956143,-0.819369,2.481,2.78225
-0.941212,-0.813424,2.463,2.75933
-0.926398,-0.80748,2.445,2.73647
-0.918462,-0.80748,2.445,2.73379
-0.910526,-0.80748,2.445,2.73114
-0.896315,-0.801865,2.428,2.70953
-0.888434,-0.801865,2.428,2.70693
-0.880553,-0.801865,2.428,2.70436
-0.872672,-0.801865,2.428,2.7018
-0.870847,-0.80748,2.445,2.71817
-0.869264,-0.813424,2.463,2.73563
-0.861269,-0.813424,2.463,2.7331
-0.847039,-0.80748,2.445,2.71063
-0.839103,-0.80748,2.445,2.70816
-0.831167,-0.80748,2.445,2.70571
-0.823232,-0.80748,2.445,2.70329
-0.821298,-0.813424,2.463,2.72076
-0.819247,-0.819369,2.481,2.73823
-0.811195,-0.819369,2.481,2.73583
-0.803142,-0.819369,2.481,2.73345
-0.795089,-0.819369,2.481,2.7311
-0.787037,-0.819369,2.481,2.72876
-0.778984,-0.819369,2.481,2.72645
-0.770931,-0.819369,2.481,2.72416
-0.762878,-0.819369,2.481,2.72189
-0.754826,-0.819369,2.481,2.71965
-0.752191,-0.825313,2.499,2.73714
-0.749439,-0.831258,2.517,2.75462
-0.74127,-0.831258,2.517,2.75241
-0.7331,-0.831258,2.517,2.75022
-0.730403,-0.837533,2.536,2.7688
-0.722172,-0.837533,2.536,2.76664
-0.71394,-0.837533,2.536,2.7645
-0.705709,-0.837533,2.536,2.76239
-0.697478,-0.837533,2.536,2.7603
-0.699575,-0.850083,2.574,2.79956
-0.69122,-0.850083,2.574,2.79748
-0.687906,-0.856358,2.593,2.81606
-0.67949,-0.856358,2.593,2.81402
-0.671074,-0.856358,2.593,2.812
-0.662657,-0.856358,2.593,2.81
-0.654241,-0.856358,2.593,2.80803
-0.645825,-0.856358,2.593,2.80608
-0.637409,-0.856358,2.593,2.80416
-0.628992,-0.856358,2.593,2.80225
-0.620576,-0.856358,2.593,2.80038
-0.61216,-0.856358,2.593,2.79852
-0.603744,-0.856358,2.593,2.7967
-0.590965,-0.850083,2.574,2.77441
-0.582611,-0.850083,2.574,2.77264
-0.574256,-0.850083,2.574,2.7709
-0.561724,-0.843808,2.555,2.74874
-0.553431,-0.843808,2.555,2.74706
-0.545139,-0.843808,2.555,2.7454
-0.532853,-0.837533,2.536,2.72336
-0.524622,-0.837533,2.536,2.72176
-0.516391,-0.837533,2.536,2.72019
-0.504353,-0.831258,2.517,2.69827
-0.496183,-0.831258,2.517,2.69675
-0.484524,-0.825313,2.499,2.67599
-0.476412,-0.825313,2.499,2.67453
-0.464928,-0.819369,2.481,2.65384
-0.456875,-0.819369,2.481,2.65244
-0.448823,-0.819369,2.481,2.65107
-0.44077,-0.819369,2.481,2.64972
-0.432717,-0.819369,2.481,2.64839
-0.424665,-0.819369,2.481,2.64709
-0.416612,-0.819369,2.481,2.64581
-0.408559,-0.819369,2.481,2.64455
-0.403412,-0.825313,2.499,2.6625
-0.395301,-0.825313,2.499,2.66128
-0.38719,-0.825313,2.499,2.66009
-0.379079,-0.825313,2.499,2.65892
-0.370968,-0.825313,2.499,2.65777
-0.362857,-0.825313,2.499,2.65665
-0.354745,-0.825313,2.499,2.65556
-0.346634,-0.825313,2.499,2.65449
-0.336085,-0.819369,2.481,2.63433
-0.328032,-0.819369,2.481,2.63331
-0.319979,-0.819369,2.481,2.63232
-0.311927,-0.819369,2.481,2.63135
-0.301669,-0.813424,2.463,2.61133
-0.293675,-0.813424,2.463,2.61042
-0.285681,-0.813424,2.463,2.60953
-0.277686,-0.813424,2.463,2.60867
-0.269692,-0.813424,2.463,2.60783
-0.261698,-0.813424,2.463,2.60701
-0.253704,-0.813424,2.463,2.60622
-0.245709,-0.813424,2.463,2.60546
-0.237715,-0.813424,2.463,2.60471
-0.228042,-0.80748,2.445,2.58497
-0.220106,-0.80748,2.445,2.58428
-0.21217,-0.80748,2.445,2.58361
-0.204234,-0.80748,2.445,2.58298
-0.196298,-0.80748,2.445,2.58236
-0.187053,-0.801865,2.428,2.56382
-0.179172,-0.801865,2.428,2.56325
-0.171292,-0.801865,2.428,2.56272
-0.163411,-0.801865,2.428,2.5622
-0.15553,-0.801865,2.428,2.56171
-0.147649,-0.801865,2.428,2.56124
-0.139769,-0.801865,2.428,2.5608
-0.131888,-0.801865,2.428,2.56038
-0.124007,-0.801865,2.428,2.55999
-0.116127,-0.801865,2.428,2.55962
-0.108246,-0.801865,2.428,2.55928
-0.100365,-0.801865,2.428,2.55895
-0.0924847,-0.801865,2.428,2.55866
-0.084604,-0.801865,2.428,2.55838
-0.0767233,-0.801865,2.428,2.55814
-0.0688426,-0.801865,2.428,2.55791
-0.0609619,-0.801865,2.428,2.55771
-0.0530812,-0.801865,2.428,2.55754
-0.0452005,-0.801865,2.428,2.55738
-0.0373199,-0.801865,2.428,2.55726
-0.0294392,-0.801865,2.428,2.55715
-0.0215585,-0.801865,2.428,2.55708
-0.0136778,-0.801865,2.428,2.55702
-0.00583771,-0.80748,2.445,2.57489
0.00209816,-0.80748,2.445,2.57489
0.010034,-0.80748,2.445,2.57491
0.0179699,-0.80748,2.445,2.57495
0.0260965,-0.813424,2.463,2.59398
0.0340907,-0.813424,2.463,2.59407
0.042085,-0.813424,2.463,2.59419
0.0500793,-0.813424,2.463,2.59433
0.0580736,-0.813424,2.463,2.59449
0.0660679,-0.813424,2.463,2.59469
0.0735209,-0.80748,2.445,2.57594
0.0814568,-0.80748,2.445,2.57618
0.0893926,-0.80748,2.445,2.57644
0.0966518,-0.801865,2.428,2.55881
0.104532,-0.801865,2.428,2.55912
0.112413,-0.801865,2.428,2.55945
0.120294,-0.801865,2.428,2.55981
0.128175,-0.801865,2.428,2.5602
0.136055,-0.801865,2.428,2.5606
0.143936,-0.801865,2.428,2.56103
0.151817,-0.801865,2.428,2.56149
0.159697,-0.801865,2.428,2.56197
0.167578,-0.801865,2.428,2.56247
0.175459,-0.801865,2.428,2.563
0.183339,-0.801865,2.428,2.56355
0.19122,-0.801865,2.428,2.56413
0.199101,-0.801865,2.428,2.56472
0.206981,-0.801865,2.428,2.56535
0.214862,-0.801865,2.428,2.566
0.222743,-0.801865,2.428,2.56667
0.230623,-0.801865,2.428,2.56736
0.238504,-0.801865,2.428,2.56808
0.246385,-0.801865,2.428,2.56883
0.256046,-0.80748,2.445,2.58759
0.265925,-0.813424,2.463,2.60744
0.273919,-0.813424,2.463,2.60827
0.281914,-0.813424,2.463,2.60912
0.289908,-0.813424,2.463,2.61
0.297902,-0.813424,2.463,2.6109
0.305896,-0.813424,2.463,2.61182
0.316185,-0.819369,2.481,2.63186
0.324237,-0.819369,2.481,2.63284
0.33229,-0.819369,2.481,2.63385
0.342812,-0.825313,2.499,2.65399
0.350923,-0.825313,2.499,2.65505
0.359034,-0.825313,2.499,2.65613
0.367146,-0.825313,2.499,2.65724
0.375257,-0.825313,2.499,2.65838
0.383368,-0.825313,2.499,2.65953
0.394299,-0.831258,2.517,2.67988
0.402468,-0.831258,2.517,2.68109
0.410638,-0.831258,2.517,2.68233
0.418807,-0.831258,2.517,2.68359
0.426977,-0.831258,2.517,2.68488
0.435146,-0.831258,2.517,2.68619
0.443316,-0.831258,2.517,2.68753
0.451486,-0.831258,2.517,2.68889
0.459655,-0.831258,2.517,2.69027
0.467825,-0.831258,2.517,2.69168
0.475994,-0.831258,2.517,2.69311
0.484164,-0.831258,2.517,2.69457
0.492333,-0.831258,2.517,2.69605
0.500503,-0.831258,2.517,2.69755
0.508672,-0.831258,2.517,2.69908
0.516842,-0.831258,2.517,2.70063
0.525012,-0.831258,2.517,2.70221
0.537206,-0.837533,2.536,2.72422
0.545437,-0.837533,2.536,2.72585
0.553668,-0.837533,2.536,2.72751
0.5619,-0.837533,2.536,2.72919
0.570131,-0.837533,2.536,2.7309
0.578362,-0.837533,2.536,2.73263
0.586593,-0.837533,2.536,2.73438
0.594824,-0.837533,2.536,2.73616
0.603056,-0.837533,2.536,2.73796
0.611287,-0.837533,2.536,2.73979
0.619518,-0.837533,2.536,2.74163
0.627749,-0.837533,2.536,2.74351
0.640746,-0.843808,2.555,2.76597
0.649038,-0.843808,2.555,2.7679
0.657331,-0.843808,2.555,2.76986
0.665624,-0.843808,2.555,2.77184
0.673917,-0.843808,2.555,2.77384
0.68221,-0.843808,2.555,2.77587
0.690503,-0.843808,2.555,2.77792
0.693599,-0.837533,2.536,2.75932
0.70183,-0.837533,2.536,2.7614
0.710062,-0.837533,2.536,2.7635
0.718293,-0.837533,2.536,2.76563
0.726524,-0.837533,2.536,2.76778
0.729251,-0.831258,2.517,2.7492
0.73742,-0.831258,2.517,2.75138
0.74559,-0.831258,2.517,2.75358
0.753759,-0.831258,2.517,2.7558
0.761929,-0.831258,2.517,2.75805
0.770098,-0.831258,2.517,2.76031
0.778268,-0.831258,2.517,2.7626
0.786437,-0.831258,2.517,2.76492
0.794607,-0.831258,2.517,2.76725
0.802777,-0.831258,2.517,2.76961
0.810946,-0.831258,2.517,2.77199
0.819116,-0.831258,2.517,2.77439
0.827285,-0.831258,2.517,2.77681
0.835455,-0.831258,2.517,2.77926
0.843624,-0.831258,2.517,2.78172
0.851794,-0.831258,2.517,2.78421
0.866455,-0.837533,2.536,2.80776
0.874686,-0.837533,2.536,2.81031
0.889532,-0.843808,2.555,2.83396
0.897825,-0.843808,2.555,2.83657
0.906118,-0.843808,2.555,2.83921
0.921211,-0.850083,2.574,2.863
0.936427,-0.856358,2.593,2.88685
0.944843,-0.856358,2.593,2.88959
0.960612,-0.862963,2.613,2.91466
0.976511,-0.869568,2.633,2.9398
nan,nan,nan,NaN
nan,nan,nan,NaN
nan,nan,nan,NaN
nan,nan,nan,NaN
nan,nan,nan,NaN
nan,nan,nan,NaN
nan,nan,nan,NaN
nan,nan,nan,NaN
nan,nan,nan,NaN
nan,nan,nan,NaN
nan,nan,nan,NaN
nan,nan,nan,NaN
nan,nan,nan,NaN
nan,nan,nan,NaN
nan,nan,nan,NaN
nan,nan,nan,NaN
nan,nan,nan,NaN
nan,nan,nan,NaN
nan,nan,nan,NaN
nan,nan,nan,NaN
nan,nan,nan,NaN
nan,nan,nan,NaN
1.42524,-1.05649,3.199,3.65802
1.43562,-1.05649,3.199,3.66207
1.446,-1.05649,3.199,3.66616
1.45639,-1.05649,3.199,3.67026
1.48098,-1.06673,3.23,3.71
1.49147,-1.06673,3.23,3.7142
1.50195,-1.06673,3.23,3.71842
1.51244,-1.06673,3.23,3.72267
1.52292,-1.06673,3.23,3.72694
1.5334,-1.06673,3.23,3.73124
1.52907,-1.05649,3.199,3.69971
1.53945,-1.05649,3.199,3.70401
1.54984,-1.05649,3.199,3.70834
1.56022,-1.05649,3.199,3.71269
1.5706,-1.05649,3.199,3.71707
1.58099,-1.05649,3.199,3.72146
1.57694,-1.04692,3.17,3.69211
1.58723,-1.04692,3.17,3.69652
1.59752,-1.04692,3.17,3.70095
1.60781,-1.04692,3.17,3.7054
1.6329,-1.05649,3.199,3.74381
1.64328,-1.05649,3.199,3.74835
1.65367,-1.05649,3.199,3.75292
1.66405,-1.05649,3.199,3.75751
1.70636,-1.07664,3.26,3.83385
1.71694,-1.07664,3.26,3.83857
1.76144,-1.09778,3.324,3.91877
1.77223,-1.09778,3.324,3.92363
1.78302,-1.09778,3.324,3.92852
1.82888,-1.11924,3.389,4.01034
1.87734,-1.14203,3.458,4.09712
1.92734,-1.16548,3.529,4.18651
1.9388,-1.16548,3.529,4.19179
1.95025,-1.16548,3.529,4.1971
1.98227,-1.1777,3.566,4.2465
1.99385,-1.1777,3.566,4.25191
2.00542,-1.1777,3.566,4.25735
2.017,-1.1777,3.566,4.26282
2.02857,-1.1777,3.566,4.26831
2.04015,-1.1777,3.566,4.27382
2.05172,-1.1777,3.566,4.27936
2.06329,-1.1777,3.566,4.28492
2.05334,-1.16548,3.529,4.24599
2.04373,-1.15359,3.493,4.20817
2.05507,-1.15359,3.493,4.21368
2.0457,-1.14203,3.458,4.17695
2.03611,-1.13047,3.423,4.14012
2.04722,-1.13047,3.423,4.1456
2.03788,-1.11924,3.389,4.10986
2.00958,-1.09778,3.324,4.0364
2.02037,-1.09778,3.324,4.04178
2.03116,-1.09778,3.324,4.04718
2.00264,-1.07664,3.26,3.97458
2.01322,-1.07664,3.26,3.97992
2.00517,-1.06673,3.23,3.94861
1.97821,-1.04692,3.17,3.8805
1.95212,-1.02776,3.112,3.81466
1.96222,-1.02776,3.112,3.81984
1.95458,-1.01851,3.084,3.79062
1.94739,-1.0096,3.057,3.76256
1.95731,-1.0096,3.057,3.7677
1.94986,-1.00068,3.03,3.73955
1.92541,-0.983177,2.977,3.67918
1.93508,-0.983177,2.977,3.68425
1.92775,-0.97459,2.951,3.65711
1.92092,-0.966333,2.926,3.63114
1.93042,-0.966333,2.926,3.63618
1.92334,-0.958077,2.901,3.61012
1.91676,-0.950151,2.877,3.58523
1.9261,-0.950151,2.877,3.59023
1.9193,-0.942225,2.853,3.56526
1.89678,-0.926702,2.806,3.51144
1.90589,-0.926702,2.806,3.51637
-2.37465,-1.11936,3.423,4.3138
-2.36354,-1.11936,3.423,4.30769
-2.32906,-1.10825,3.389,4.25888
-2.31806,-1.10825,3.389,4.25287
-2.30706,-1.10825,3.389,4.24689
-2.25202,-1.08699,3.324,4.15958
-2.24123,-1.08699,3.324,4.15375
-2.23045,-1.08699,3.324,4.14794
-2.21966,-1.08699,3.324,4.14215
-2.20887,-1.08699,3.324,4.13638
-2.19808,-1.08699,3.324,4.13063
-2.18729,-1.08699,3.324,4.1249
-2.1765,-1.08699,3.324,4.11918
-2.16571,-1.08699,3.324,4.11349
-2.15492,-1.08699,3.324,4.10782
-2.14413,-1.08699,3.324,4.10217
-2.13335,-1.08699,3.324,4.09655
-2.12256,-1.08699,3.324,4.09094
-2.11177,-1.08699,3.324,4.08535
-2.10098,-1.08699,3.324,4.07978
-2.09019,-1.08699,3.324,4.07424
-2.0794,-1.08699,3.324,4.06871
-2.06861,-1.08699,3.324,4.06321
-2.05782,-1.08699,3.324,4.05773
-2.04703,-1.08699,3.324,4.05227
-2.03625,-1.08699,3.324,4.04683
-2.02546,-1.08699,3.324,4.04141
-2.01467,-1.08699,3.324,4.03601
-2.00388,-1.08699,3.324,4.03064
nan,nan,nan,NaN
nan,nan,nan,NaN
nan,nan,nan,NaN
nan,nan,nan,NaN
nan,nan,nan,NaN
nan,nan,nan,NaN
nan,nan,nan,NaN
nan,nan,nan,NaN
nan,nan,nan,NaN
nan,nan,nan,NaN
nan,nan,nan,NaN
nan,nan,nan,NaN
nan,nan,nan,NaN
nan,nan,nan,NaN
nan,nan,nan,NaN
nan,nan,nan,NaN
nan,nan,nan,NaN
nan,nan,nan,NaN
nan,nan,nan,NaN
nan,nan,nan,NaN
nan,nan,nan,NaN
nan,nan,nan,NaN
nan,nan,nan,NaN
nan,nan,nan,NaN
nan,nan,nan,NaN
nan,nan,nan,NaN
-1.36738,-0.867892,2.654,3.10913
-1.35877,-0.867892,2.654,3.10535
-1.33947,-0.861024,2.633,3.07705
-1.31071,-0.847944,2.593,3.02665
-1.30229,-0.847944,2.593,3.02302
-1.28439,-0.841731,2.574,2.99727
-1.26662,-0.835517,2.555,2.97161
-1.25833,-0.835517,2.555,2.96808
-1.23144,-0.823091,2.517,2.92048
-1.22327,-0.823091,2.517,2.91705
nan,nan,nan,NaN
-1.18104,-0.805432,2.463,2.8478
-1.15638,-0.793987,2.428,2.80407
-1.1485,-0.793987,2.428,2.80083
-1.1486,-0.799546,2.445,2.81719
-1.14067,-0.799546,2.445,2.81397
nan,nan,nan,NaN
nan,nan,nan,NaN
nan,nan,nan,NaN
nan,nan,nan,NaN
nan,nan,nan,NaN
nan,nan,nan,NaN
nan,nan,nan,NaN
nan,nan,nan,NaN
nan,nan,nan,NaN
nan,nan,nan,NaN
-1.09258,-0.829304,2.536,2.88319
-1.08435,-0.829304,2.536,2.88008
-1.07611,-0.829304,2.536,2.87699
-1.06788,-0.829304,2.536,2.87392
-1.06759,-0.835517,2.555,2.89238
-1.0593,-0.835517,2.555,2.88933
-1.04319,-0.829304,2.536,2.86484
-1.03496,-0.829304,2.536,2.86185
-1.02673,-0.829304,2.536,2.85888
-1.01087,-0.823091,2.517,2.83454
-1.0027,-0.823091,2.517,2.83164
-0.994526,-0.823091,2.517,2.82875
-0.979303,-0.817205,2.499,2.80568
-0.964196,-0.811318,2.481,2.78267
-0.956143,-0.811318,2.481,2.77989
-0.941212,-0.805432,2.463,2.75699
-0.926398,-0.799546,2.445,2.73414
-0.918462,-0.799546,2.445,2.73146
-0.904195,-0.793987,2.428,2.70983
-0.896315,-0.793987,2.428,2.70721
-0.888434,-0.793987,2.428,2.70461
-0.880553,-0.793987,2.428,2.70203
-0.872672,-0.793987,2.428,2.69947
-0.864792,-0.793987,2.428,2.69694
-0.856911,-0.793987,2.428,2.69442
-0.84903,-0.793987,2.428,2.69192
-0.847039,-0.799546,2.445,2.70828
-0.839103,-0.799546,2.445,2.70581
-0.825388,-0.793987,2.428,2.68456
-0.817508,-0.793987,2.428,2.68215
-0.815296,-0.799546,2.445,2.69852
-0.80736,-0.799546,2.445,2.69613
-0.799424,-0.799546,2.445,2.69377
-0.791488,-0.799546,2.445,2.69142
-0.795089,-0.811318,2.481,2.72869
-0.781326,-0.805432,2.463,2.70658
-0.773332,-0.805432,2.463,2.70428
-0.765338,-0.805432,2.463,2.70201
-0.757344,-0.805432,2.463,2.69975
-0.749349,-0.805432,2.463,2.69752
-0.746773,-0.811318,2.481,2.71501
-0.74408,-0.817205,2.499,2.73249
-0.735969,-0.817205,2.499,2.73029
-0.727858,-0.817205,2.499,2.72811
-0.724931,-0.823091,2.517,2.7456
-0.716761,-0.823091,2.517,2.74345
-0.708592,-0.823091,2.517,2.74133
-0.700422,-0.823091,2.517,2.73923
-0.692252,-0.823091,2.517,2.73715
-0.689247,-0.829304,2.536,2.75574
-0.686118,-0.835517,2.555,2.77432
-0.682866,-0.841731,2.574,2.7929
-0.674511,-0.841731,2.574,2.79087
-0.666156,-0.841731,2.574,2.78886
-0.662657,-0.847944,2.593,2.80745
-0.654241,-0.847944,2.593,2.80547
-0.645825,-0.847944,2.593,2.80352
-0.637409,-0.847944,2.593,2.8016
-0.628992,-0.847944,2.593,2.79969
-0.616029,-0.841731,2.574,2.77732
-0.607674,-0.841731,2.574,2.77547
-0.59932,-0.841731,2.574,2.77366
-0.590965,-0.841731,2.574,2.77186
-0.57831,-0.835517,2.555,2.74965
-0.570017,-0.835517,2.555,2.74791
-0.561724,-0.835517,2.555,2.74621
-0.549316,-0.829304,2.536,2.72411
-0.541085,-0.829304,2.536,2.72246
-0.532853,-0.829304,2.536,2.72084
-0.520692,-0.823091,2.517,2.69887
-0.512522,-0.823091,2.517,2.6973
-0.500746,-0.817205,2.499,2.67648
-0.492635,-0.817205,2.499,2.67498
-0.484524,-0.817205,2.499,2.6735
-0.476412,-0.817205,2.499,2.67204
-0.464928,-0.811318,2.481,2.65137
-0.456875,-0.811318,2.481,2.64997
-0.448823,-0.811318,2.481,2.64859
-0.44077,-0.811318,2.481,2.64724
-0.432717,-0.811318,2.481,2.64591
-0.424665,-0.811318,2.481,2.64461
-0.416612,-0.811318,2.481,2.64332
-0.411523,-0.817205,2.499,2.66124
-0.403412,-0.817205,2.499,2.65999
-0.395301,-0.817205,2.499,2.65878
-0.38719,-0.817205,2.499,2.65758
-0.379079,-0.817205,2.499,2.65641
-0.370968,-0.817205,2.499,2.65527
-0.362857,-0.817205,2.499,2.65415
-0.354745,-0.817205,2.499,2.65305
-0.346634,-0.817205,2.499,2.65198
-0.338523,-0.817205,2.499,2.65093
-0.328032,-0.811318,2.481,2.63082
-0.319979,-0.811318,2.481,2.62983
-0.311927,-0.811318,2.481,2.62886
-0.301669,-0.805432,2.463,2.60885
-0.293675,-0.805432,2.463,2.60794
-0.285681,-0.805432,2.463,2.60705
-0.277686,-0.805432,2.463,2.60618
-0.269692,-0.805432,2.463,2.60535
-0.261698,-0.805432,2.463,2.60453
-0.253704,-0.805432,2.463,2.60374
-0.245709,-0.805432,2.463,2.60297
-0.237715,-0.805432,2.463,2.60223
-0.228042,-0.799546,2.445,2.5825
-0.220106,-0.799546,2.445,2.58181
-0.21217,-0.799546,2.445,2.58115
-0.204234,-0.799546,2.445,2.58051
-0.196298,-0.799546,2.445,2.57989
-0.187053,-0.793987,2.428,2.56136
-0.179172,-0.793987,2.428,2.5608
-0.171292,-0.793987,2.428,2.56026
-0.163411,-0.793987,2.428,2.55975
-0.15553,-0.793987,2.428,2.55926
-0.147649,-0.793987,2.428,2.55879
-0.139769,-0.793987,2.428,2.55835
-0.131888,-0.793987,2.428,2.55793
-0.124007,-0.793987,2.428,2.55753
-0.116127,-0.793987,2.428,2.55716
-0.108246,-0.793987,2.428,2.55682
-0.100365,-0.793987,2.428,2.5565
-0.0924847,-0.793987,2.428,2.5562
-0.084604,-0.793987,2.428,2.55593
-0.0767233,-0.793987,2.428,2.55568
-0.0688426,-0.793987,2.428,2.55545
-0.0609619,-0.793987,2.428,2.55525
-0.0530812,-0.793987,2.428,2.55508
-0.0452005,-0.793987,2.428,2.55493
-0.0373199,-0.793987,2.428,2.5548
-0.0294392,-0.793987,2.428,2.55469
-0.0215585,-0.793987,2.428,2.55462
-0.0136778,-0.793987,2.428,2.55456
-0.00583771,-0.799546,2.445,2.57242
0.00209816,-0.799546,2.445,2.57241
0.010034,-0.799546,2.445,2.57243
0.0179699,-0.799546,2.445,2.57247
0.0260965,-0.805432,2.463,2.59148
0.0340907,-0.805432,2.463,2.59157
0.042085,-0.805432,2.463,2.59169
0.0500793,-0.805432,2.463,2.59183
0.0576492,-0.799546,2.445,2.57306
0.0655851,-0.799546,2.445,2.57325
0.0735209,-0.799546,2.445,2.57346
0.0814568,-0.799546,2.445,2.5737
0.0893926,-0.799546,2.445,2.57396
0.0966518,-0.793987,2.428,2.55635
0.104532,-0.793987,2.428,2.55666
0.112413,-0.793987,2.428,2.557
0.120294,-0.793987,2.428,2.55736
0.128175,-0.793987,2.428,2.55774
0.135103,-0.788427,2.411,2.54023
0.142928,-0.788427,2.411,2.54066
0.150754,-0.788427,2.411,2.54112
0.158579,-0.788427,2.411,2.54159
0.166405,-0.788427,2.411,2.54209
0.17423,-0.788427,2.411,2.54262
0.182056,-0.788427,2.411,2.54316
0.188542,-0.782868,2.394,2.5258
0.196313,-0.782868,2.394,2.52639
0.205532,-0.788427,2.411,2.54495
0.213358,-0.788427,2.411,2.5456
0.221183,-0.788427,2.411,2.54626
0.229009,-0.788427,2.411,2.54696
0.236834,-0.788427,2.411,2.54767
0.246385,-0.793987,2.428,2.56638
0.254265,-0.793987,2.428,2.56715
0.262146,-0.793987,2.428,2.56794
0.270027,-0.793987,2.428,2.56876
0.279853,-0.799546,2.445,2.58759
0.287789,-0.799546,2.445,2.58846
0.295725,-0.799546,2.445,2.58935
0.303661,-0.799546,2.445,2.59027
0.313891,-0.805432,2.463,2.61029
0.321885,-0.805432,2.463,2.61126
0.329879,-0.805432,2.463,2.61226
0.340343,-0.811318,2.481,2.63238
0.350923,-0.817205,2.499,2.65254
0.359034,-0.817205,2.499,2.65363
0.364501,-0.811318,2.481,2.63561
0.372554,-0.811318,2.481,2.63674
0.380606,-0.811318,2.481,2.63789
0.391479,-0.817205,2.499,2.65821
0.39959,-0.817205,2.499,2.65942
0.407701,-0.817205,2.499,2.66065
0.415812,-0.817205,2.499,2.6619
0.423923,-0.817205,2.499,2.66318
0.432035,-0.817205,2.499,2.66448
0.440146,-0.817205,2.499,2.66581
0.448257,-0.817205,2.499,2.66716
0.456368,-0.817205,2.499,2.66854
0.464479,-0.817205,2.499,2.66994
0.47259,-0.817205,2.499,2.67136
0.480701,-0.817205,2.499,2.67281
0.488812,-0.817205,2.499,2.67428
0.496924,-0.817205,2.499,2.67577
0.505035,-0.817205,2.499,2.67729
0.513146,-0.817205,2.499,2.67883
0.521257,-0.817205,2.499,2.6804
0.529368,-0.817205,2.499,2.68199
0.537479,-0.817205,2.499,2.6836
0.54559,-0.817205,2.499,2.68524
0.55769,-0.823091,2.517,2.70625
0.565859,-0.823091,2.517,2.70794
0.574029,-0.823091,2.517,2.70966
0.582199,-0.823091,2.517,2.71141
0.590368,-0.823091,2.517,2.71317
0.598538,-0.823091,2.517,2.71496
0.606707,-0.823091,2.517,2.71677
0.619518,-0.829304,2.536,2.73913
0.627749,-0.829304,2.536,2.74101
0.635981,-0.829304,2.536,2.7429
0.644212,-0.829304,2.536,2.74482
0.652443,-0.829304,2.536,2.74677
0.660674,-0.829304,2.536,2.74873
0.668906,-0.829304,2.536,2.75072
0.677137,-0.829304,2.536,2.75274
0.685368,-0.829304,2.536,2.75477
0.693599,-0.829304,2.536,2.75683
0.70183,-0.829304,2.536,2.75891
0.710062,-0.829304,2.536,2.76102
0.712911,-0.823091,2.517,2.74245
0.721081,-0.823091,2.517,2.74458
0.729251,-0.823091,2.517,2.74674
0.73742,-0.823091,2.517,2.74892
0.74559,-0.823091,2.517,2.75112
0.753759,-0.823091,2.517,2.75335
0.75648,-0.817205,2.499,2.73589
0.764591,-0.817205,2.499,2.73814
0.772702,-0.817205,2.499,2.74042
0.780813,-0.817205,2.499,2.74272
0.788924,-0.817205,2.499,2.74504
0.797036,-0.817205,2.499,2.74738
0.805147,-0.817205,2.499,2.74974
0.813258,-0.817205,2.499,2.75213
0.821369,-0.817205,2.499,2.75454
0.82948,-0.817205,2.499,2.75697
0.837591,-0.817205,2.499,2.75942
0.851794,-0.823091,2.517,2.78178
0.859963,-0.823091,2.517,2.7843
0.868133,-0.823091,2.517,2.78683
0.889532,-0.835517,2.555,2.8315
0.897825,-0.835517,2.555,2.83411
0.906118,-0.835517,2.555,2.83675
0.921211,-0.841731,2.574,2.86053
0.936427,-0.847944,2.593,2.88436
0.944843,-0.847944,2.593,2.88711
0.960612,-0.854484,2.613,2.91216
0.984299,-0.867892,2.654,2.96071
nan,nan,nan,NaN
nan,nan,nan,NaN
nan,nan,nan,NaN
nan,nan,nan,NaN
nan,nan,nan,NaN
nan,nan,nan,NaN
nan,nan,nan,NaN
nan,nan,nan,NaN
nan,nan,nan,NaN
nan,nan,nan,NaN
nan,nan,nan,NaN
nan,nan,nan,NaN
nan,nan,nan,NaN
nan,nan,nan,NaN
nan,nan,nan,NaN
nan,nan,nan,NaN
nan,nan,nan,NaN
nan,nan,nan,NaN
nan,nan,nan,NaN
nan,nan,nan,NaN
nan,nan,nan,NaN
1.41485,-1.04611,3.199,3.651
1.42524,-1.04611,3.199,3.65503
1.43562,-1.04611,3.199,3.65909
1.446,-1.04611,3.199,3.66318
1.45639,-1.04611,3.199,3.66729
1.48098,-1.05625,3.23,3.707
1.49147,-1.05625,3.23,3.71121
1.50195,-1.05625,3.23,3.71543
1.51244,-1.05625,3.23,3.71968
1.52292,-1.05625,3.23,3.72396
1.51869,-1.04611,3.199,3.69247
1.51521,-1.03663,3.17,3.66324
1.5255,-1.03663,3.17,3.66751
1.53579,-1.03663,3.17,3.6718
1.54608,-1.03663,3.17,3.67612
1.55636,-1.03663,3.17,3.68046
1.55232,-1.02715,3.141,3.65111
1.56252,-1.02715,3.141,3.65546
1.57271,-1.02715,3.141,3.65983
1.58291,-1.02715,3.141,3.66422
1.5931,-1.02715,3.141,3.66863
1.6181,-1.03663,3.17,3.70699
1.62839,-1.03663,3.17,3.71149
1.63868,-1.03663,3.17,3.71601
1.66405,-1.04611,3.199,3.7546
1.70636,-1.06606,3.26,3.8309
1.71694,-1.06606,3.26,3.83562
1.76144,-1.08699,3.324,3.91576
1.77223,-1.08699,3.324,3.92063
1.78302,-1.08699,3.324,3.92552
