0.742987,-0.40963,2.536,2.67416
0.751218,-0.40963,2.536,2.67646
0.765139,-0.412699,2.555,2.69885
0.773432,-0.412699,2.555,2.70121
0.775912,-0.40963,2.536,2.68349
0.784143,-0.40963,2.536,2.68588
0.792374,-0.40963,2.536,2.6883
0.800605,-0.40963,2.536,2.69074
0.808836,-0.40963,2.536,2.6932
0.817068,-0.40963,2.536,2.69568
0.825299,-0.40963,2.536,2.69819
0.83353,-0.40963,2.536,2.70072
0.841761,-0.40963,2.536,2.70327
0.849993,-0.40963,2.536,2.70584
0.858224,-0.40963,2.536,2.70844
0.866455,-0.40963,2.536,2.71106
0.868133,-0.406561,2.517,2.69337
0.876303,-0.406561,2.517,2.69601
0.884472,-0.406561,2.517,2.69868
0.892642,-0.406561,2.517,2.70137
0.900811,-0.406561,2.517,2.70408
0.90248,-0.403653,2.499,2.68745
0.910591,-0.403653,2.499,2.69019
0.918703,-0.403653,2.499,2.69295
0.920138,-0.400746,2.481,2.67631
0.928191,-0.400746,2.481,2.67909
0.936243,-0.400746,2.481,2.68189
0.944296,-0.400746,2.481,2.68471
0.952349,-0.400746,2.481,2.68755
0.960401,-0.400746,2.481,2.69041
0.961428,-0.397838,2.463,2.67376
0.969422,-0.397838,2.463,2.67664
0.977417,-0.397838,2.463,2.67955
0.985411,-0.397838,2.463,2.68248
0.986145,-0.394931,2.445,2.6658
0.994081,-0.394931,2.445,2.66874
1.00202,-0.394931,2.445,2.67171
1.00995,-0.394931,2.445,2.6747
1.01789,-0.394931,2.445,2.6777
1.02582,-0.394931,2.445,2.68073
nan,nan,nan,NaN
nan,nan,nan,NaN
nan,nan,nan,NaN
1.15705,-0.432082,2.675,2.94637
1.16574,-0.432082,2.675,2.94979
1.2631,-0.46471,2.877,3.17624
1.27244,-0.46471,2.877,3.17997
1.30361,-0.472625,2.926,3.23794
1.31311,-0.472625,2.926,3.24177
1.3226,-0.472625,2.926,3.24563
1.3321,-0.472625,2.926,3.24951
1.35306,-0.476663,2.951,3.28122
1.36264,-0.476663,2.951,3.28518
1.37222,-0.476663,2.951,3.28916
1.39397,-0.480863,2.977,3.32218
1.40363,-0.480863,2.977,3.32625
1.41329,-0.480863,2.977,3.33034
1.42296,-0.480863,2.977,3.33445
1.43262,-0.480863,2.977,3.33859
1.42969,-0.476663,2.951,3.31355
1.43926,-0.476663,2.951,3.31769
1.46161,-0.480863,2.977,3.35113
1.47127,-0.480863,2.977,3.35535
1.468,-0.476663,2.951,3.33026
1.47758,-0.476663,2.951,3.33449
1.48716,-0.476663,2.951,3.33875
1.49673,-0.476663,2.951,3.34303
1.51958,-0.480863,2.977,3.37682
1.5426,-0.485063,3.003,3.41071
1.55235,-0.485063,3.003,3.41513
1.57614,-0.489424,3.03,3.45031
1.61424,-0.498146,3.084,3.51639
1.66954,-0.512037,3.17,3.61918
1.67983,-0.512037,3.17,3.62394
1.73811,-0.526575,3.26,3.73174
nan,nan,nan,NaN
1.86612,-0.558557,3.458,3.9689
1.87734,-0.558557,3.458,3.97419
1.90768,-0.56421,3.493,4.01978
1.95913,-0.576002,3.566,4.1093
1.9707,-0.576002,3.566,4.11483
1.98227,-0.576002,3.566,4.12038
1.99385,-0.576002,3.566,4.12596
2.00542,-0.576002,3.566,4.13157
2.03849,-0.58214,3.604,4.18129
2.05019,-0.58214,3.604,4.187
2.04015,-0.576002,3.566,4.14853
2.05172,-0.576002,3.566,4.15424
2.06329,-0.576002,3.566,4.15997
2.07487,-0.576002,3.566,4.16572
2.08644,-0.576002,3.566,4.1715
2.07625,-0.570025,3.529,4.13395
2.0877,-0.570025,3.529,4.13972
2.05692,-0.558557,3.458,4.0621
2.04722,-0.552903,3.423,4.02663
2.05833,-0.552903,3.423,4.03229
2.02893,-0.542081,3.356,3.95893
2.02037,-0.536912,3.324,3.92672
2.03116,-0.536912,3.324,3.93229
2.00264,-0.526575,3.26,3.86205
1.99469,-0.521729,3.23,3.83196
2.00517,-0.521729,3.23,3.83742
1.96012,-0.507353,3.141,3.73702
1.91762,-0.493785,3.057,3.6423
1.92754,-0.493785,3.057,3.64753
1.90324,-0.485063,3.003,3.58826
1.86394,-0.472625,2.926,3.5013
1.87343,-0.472625,2.926,3.50637
1.86684,-0.468587,2.901,3.48145
1.84521,-0.460834,2.853,3.42882
1.85447,-0.460834,2.853,3.43381
1.83303,-0.453242,2.806,3.38217
1.82704,-0.449527,2.783,3.35935
1.83607,-0.449527,2.783,3.36427
1.83052,-0.445973,2.761,3.34258
1.82482,-0.44242,2.739,3.32082
1.81899,-0.438866,2.717,3.299
1.8278,-0.438866,2.717,3.30387
1.83662,-0.438866,2.717,3.30876
1.84544,-0.438866,2.717,3.31366
-2.32817,-0.531192,3.356,4.11889
-2.31727,-0.531192,3.356,4.11274
-2.30638,-0.531192,3.356,4.10662
-2.29549,-0.531192,3.356,4.10051
-2.2846,-0.531192,3.356,4.09442
-2.29606,-0.536415,3.389,4.12855
-2.26281,-0.531192,3.356,4.0823
-2.25192,-0.531192,3.356,4.07628
-2.24102,-0.531192,3.356,4.07027
-2.23013,-0.531192,3.356,4.06428
-2.21924,-0.531192,3.356,4.05832
-2.20835,-0.531192,3.356,4.05237
-2.19745,-0.531192,3.356,4.04644
-2.20806,-0.536415,3.389,4.08027
-2.19706,-0.536415,3.389,4.07433
-2.18606,-0.536415,3.389,4.06841
-2.17506,-0.536415,3.389,4.06251
-2.16406,-0.536415,3.389,4.05663
-2.15306,-0.536415,3.389,4.05077
-2.14206,-0.536415,3.389,4.04493
-2.13106,-0.536415,3.389,4.03912
-2.12006,-0.536415,3.389,4.03333
-2.08853,-0.531192,3.356,3.98834
-2.07763,-0.531192,3.356,3.98265
-2.04703,-0.526127,3.324,3.93905
-2.03625,-0.526127,3.324,3.93346
-2.02546,-0.526127,3.324,3.92788
-1.99527,-0.521062,3.292,3.88457
-1.98459,-0.521062,3.292,3.87909
-1.9739,-0.521062,3.292,3.87364
-1.96322,-0.521062,3.292,3.8682
nan,nan,nan,NaN
nan,nan,nan,NaN
nan,nan,nan,NaN
nan,nan,nan,NaN
nan,nan,nan,NaN
nan,nan,nan,NaN
nan,nan,nan,NaN
nan,nan,nan,NaN
nan,nan,nan,NaN
nan,nan,nan,NaN
nan,nan,nan,NaN
nan,nan,nan,NaN
nan,nan,nan,NaN
nan,nan,nan,NaN
nan,nan,nan,NaN
nan,nan,nan,NaN
nan,nan,nan,NaN
nan,nan,nan,NaN
nan,nan,nan,NaN
nan,nan,nan,NaN
nan,nan,nan,NaN
nan,nan,nan,NaN
nan,nan,nan,NaN
nan,nan,nan,NaN
nan,nan,nan,NaN
nan,nan,nan,NaN
nan,nan,nan,NaN
nan,nan,nan,NaN
nan,nan,nan,NaN
nan,nan,nan,NaN
-1.12385,-0.358823,2.267,2.5556
-1.11649,-0.358823,2.267,2.55237
-1.10913,-0.358823,2.267,2.54916
-1.10177,-0.358823,2.267,2.54597
-1.10166,-0.361198,2.282,2.55962
-1.09425,-0.361198,2.282,2.55644
-1.08684,-0.361198,2.282,2.55328
-1.087,-0.36373,2.298,2.56801
-1.07954,-0.36373,2.298,2.56486
-1.07209,-0.36373,2.298,2.56173
-1.06463,-0.36373,2.298,2.55862
-1.06407,-0.366104,2.313,2.57221
-1.05656,-0.366104,2.313,2.56911
-1.04905,-0.366104,2.313,2.56603
-1.04875,-0.368637,2.329,2.5807
-1.04119,-0.368637,2.329,2.57764
-1.03363,-0.368637,2.329,2.57459
-1.02607,-0.368637,2.329,2.57157
-1.02551,-0.371169,2.345,2.58621
-1.0179,-0.371169,2.345,2.5832
-1.01029,-0.371169,2.345,2.58021
-1.00268,-0.371169,2.345,2.57724
-0.995066,-0.371169,2.345,2.57429
-0.987455,-0.371169,2.345,2.57135
-0.979844,-0.371169,2.345,2.56844
-0.978866,-0.373702,2.361,2.58305
-0.971203,-0.373702,2.361,2.58016
-0.96354,-0.373702,2.361,2.57728
-0.955876,-0.373702,2.361,2.57443
-0.948213,-0.373702,2.361,2.57159
-0.946924,-0.376234,2.377,2.58618
-0.939209,-0.376234,2.377,2.58337
-0.931494,-0.376234,2.377,2.58057
-0.923778,-0.376234,2.377,2.5778
-0.916063,-0.376234,2.377,2.57504
-0.908348,-0.376234,2.377,2.57231
-0.900633,-0.376234,2.377,2.5696
-0.892918,-0.376234,2.377,2.5669
-0.885203,-0.376234,2.377,2.56423
-0.877488,-0.376234,2.377,2.56157
-0.869772,-0.376234,2.377,2.55894
-0.868223,-0.378925,2.394,2.57461
-0.860452,-0.378925,2.394,2.572
-0.852682,-0.378925,2.394,2.56941
-0.844912,-0.378925,2.394,2.56685
-0.837141,-0.378925,2.394,2.5643
-0.823481,-0.376234,2.377,2.54358
-0.815766,-0.376234,2.377,2.54109
-0.808051,-0.376234,2.377,2.53863
-0.800336,-0.376234,2.377,2.53618
-0.792621,-0.376234,2.377,2.53376
-0.784906,-0.376234,2.377,2.53136
-0.777191,-0.376234,2.377,2.52897
-0.769475,-0.376234,2.377,2.52661
-0.76176,-0.376234,2.377,2.52427
-0.754045,-0.376234,2.377,2.52196
-0.74633,-0.376234,2.377,2.51966
-0.738615,-0.376234,2.377,2.51739
-0.736127,-0.378925,2.394,2.53312
-0.728357,-0.378925,2.394,2.53087
-0.720586,-0.378925,2.394,2.52865
-0.712816,-0.378925,2.394,2.52645
-0.705046,-0.378925,2.394,2.52426
-0.697275,-0.378925,2.394,2.5221
-0.694401,-0.381616,2.411,2.53786
-0.686576,-0.381616,2.411,2.53573
-0.67875,-0.381616,2.411,2.53362
-0.675655,-0.384307,2.428,2.54939
-0.667775,-0.384307,2.428,2.54731
-0.659894,-0.384307,2.428,2.54526
-0.656578,-0.386997,2.445,2.56103
-0.648643,-0.386997,2.445,2.55901
-0.640707,-0.386997,2.445,2.55701
-0.637429,-0.389846,2.463,2.57384
-0.629435,-0.389846,2.463,2.57187
-0.621441,-0.389846,2.463,2.56993
-0.613446,-0.389846,2.463,2.56801
-0.605452,-0.389846,2.463,2.56611
-0.601824,-0.392696,2.481,2.58298
-0.593771,-0.392696,2.481,2.58111
-0.585719,-0.392696,2.481,2.57927
-0.577666,-0.392696,2.481,2.57745
-0.569613,-0.392696,2.481,2.57566
-0.561561,-0.392696,2.481,2.57389
-0.553508,-0.392696,2.481,2.57215
-0.545455,-0.392696,2.481,2.57043
-0.537403,-0.392696,2.481,2.56873
-0.52935,-0.392696,2.481,2.56706
-0.521297,-0.392696,2.481,2.56541
-0.513244,-0.392696,2.481,2.56378
-0.505192,-0.392696,2.481,2.56218
-0.497139,-0.392696,2.481,2.56061
-0.489086,-0.392696,2.481,2.55906
-0.481034,-0.392696,2.481,2.55753
-0.472981,-0.392696,2.481,2.55603
-0.464928,-0.392696,2.481,2.55455
-0.456875,-0.392696,2.481,2.5531
-0.445566,-0.389846,2.463,2.53316
-0.437572,-0.389846,2.463,2.53176
-0.429578,-0.389846,2.463,2.53039
-0.421584,-0.389846,2.463,2.52905
-0.413589,-0.389846,2.463,2.52773
-0.405595,-0.389846,2.463,2.52643
-0.397601,-0.389846,2.463,2.52516
-0.389606,-0.389846,2.463,2.52391
-0.381612,-0.389846,2.463,2.52269
-0.373618,-0.389846,2.463,2.5215
-0.365624,-0.389846,2.463,2.52032
-0.357629,-0.389846,2.463,2.51918
-0.349635,-0.389846,2.463,2.51805
-0.341641,-0.389846,2.463,2.51696
-0.333646,-0.389846,2.463,2.51588
-0.323272,-0.386997,2.445,2.49646
-0.315336,-0.386997,2.445,2.49544
-0.3074,-0.386997,2.445,2.49445
-0.299465,-0.386997,2.445,2.49349
-0.289502,-0.384307,2.428,2.47521
-0.281621,-0.384307,2.428,2.47431
-0.275657,-0.386997,2.445,2.49074
-0.26586,-0.384307,2.428,2.47256
-0.257979,-0.384307,2.428,2.47173
-0.251849,-0.386997,2.445,2.48822
-0.243914,-0.386997,2.445,2.48743
-0.235978,-0.386997,2.445,2.48666
-0.228042,-0.386997,2.445,2.48592
-0.220106,-0.386997,2.445,2.4852
-0.21217,-0.386997,2.445,2.48451
-0.204234,-0.386997,2.445,2.48385
-0.196298,-0.386997,2.445,2.48321
-0.188363,-0.386997,2.445,2.48259
-0.180427,-0.386997,2.445,2.482
-0.172491,-0.386997,2.445,2.48144
-0.164555,-0.386997,2.445,2.4809
-0.156619,-0.386997,2.445,2.48039
-0.148683,-0.386997,2.445,2.4799
-0.140747,-0.386997,2.445,2.47944
-0.132812,-0.386997,2.445,2.479
-0.124876,-0.386997,2.445,2.47859
-0.116127,-0.384307,2.428,2.46097
-0.108246,-0.384307,2.428,2.46061
-0.101068,-0.386997,2.445,2.4775
-0.0931322,-0.386997,2.445,2.47719
-0.0851963,-0.386997,2.445,2.4769
-0.0772605,-0.386997,2.445,2.47664
-0.0693246,-0.386997,2.445,2.47641
-0.0613887,-0.386997,2.445,2.4762
-0.0534529,-0.386997,2.445,2.47601
-0.045517,-0.386997,2.445,2.47586
-0.0375812,-0.386997,2.445,2.47572
-0.0298635,-0.389846,2.463,2.49384
-0.0218693,-0.389846,2.463,2.49376
-0.013875,-0.389846,2.463,2.4937
-0.00588068,-0.389846,2.463,2.49367
0.0021136,-0.389846,2.463,2.49366
0.0101079,-0.389846,2.463,2.49368
0.0181022,-0.389846,2.463,2.49373
0.0262872,-0.392696,2.481,2.51202
0.034589,-0.395545,2.499,2.53035
0.0427002,-0.395545,2.499,2.53047
0.0508113,-0.395545,2.499,2.53062
0.0589224,-0.395545,2.499,2.5308
0.0670336,-0.395545,2.499,2.531
0.0751447,-0.395545,2.499,2.53123
0.0832558,-0.395545,2.499,2.53148
0.091367,-0.395545,2.499,2.53176
0.0994781,-0.395545,2.499,2.53206
0.107589,-0.395545,2.499,2.5324
0.116534,-0.398394,2.517,2.551
0.124703,-0.398394,2.517,2.55138
0.132873,-0.398394,2.517,2.5518
0.141042,-0.398394,2.517,2.55223
0.149212,-0.398394,2.517,2.5527
0.156256,-0.395545,2.499,2.53493
0.164367,-0.395545,2.499,2.53544
0.172478,-0.395545,2.499,2.53598
0.180589,-0.395545,2.499,2.53655
0.188701,-0.395545,2.499,2.53714
0.196812,-0.395545,2.499,2.53775
0.204923,-0.395545,2.499,2.5384
0.213034,-0.395545,2.499,2.53906
0.221145,-0.395545,2.499,2.53976
0.227605,-0.392696,2.481,2.52218
0.235658,-0.392696,2.481,2.52292
0.24371,-0.392696,2.481,2.52368
0.251763,-0.392696,2.481,2.52447
0.259816,-0.392696,2.481,2.52529
0.267868,-0.392696,2.481,2.52613
0.277923,-0.395545,2.499,2.54533
0.286034,-0.395545,2.499,2.54623
0.294145,-0.395545,2.499,2.54715
0.302256,-0.395545,2.499,2.5481
0.310368,-0.395545,2.499,2.54908
0.318479,-0.395545,2.499,2.55008
0.328942,-0.398394,2.517,2.56948
0.337112,-0.398394,2.517,2.57054
0.342812,-0.395545,2.499,2.55323
0.350923,-0.395545,2.499,2.55433
0.359034,-0.395545,2.499,2.55546
0.36979,-0.398394,2.517,2.57502
0.37796,-0.398394,2.517,2.57621
0.386129,-0.398394,2.517,2.57742
0.394299,-0.398394,2.517,2.57866
0.405506,-0.401401,2.536,2.5994
0.413738,-0.401401,2.536,2.60069
0.421969,-0.401401,2.536,2.60201
0.4302,-0.401401,2.536,2.60336
0.438431,-0.401401,2.536,2.60473
0.446662,-0.401401,2.536,2.60613
0.454894,-0.401401,2.536,2.60756
0.463125,-0.401401,2.536,2.609
0.471356,-0.401401,2.536,2.61048
0.479587,-0.401401,2.536,2.61198
0.487819,-0.401401,2.536,2.6135
0.49605,-0.401401,2.536,2.61505
0.504281,-0.401401,2.536,2.61662
0.512512,-0.401401,2.536,2.61822
0.520743,-0.401401,2.536,2.61985
0.528975,-0.401401,2.536,2.62149
0.537206,-0.401401,2.536,2.62317
0.545437,-0.401401,2.536,2.62487
0.553668,-0.401401,2.536,2.62659
0.5619,-0.401401,2.536,2.62834
0.565859,-0.398394,2.517,2.6104
0.574029,-0.398394,2.517,2.61219
0.582199,-0.398394,2.517,2.61399
0.590368,-0.398394,2.517,2.61583
0.603056,-0.401401,2.536,2.63744
0.611287,-0.401401,2.536,2.63934
0.619518,-0.401401,2.536,2.64125
0.627749,-0.401401,2.536,2.6432
0.635981,-0.401401,2.536,2.64516
0.639385,-0.398394,2.517,2.62732
0.647555,-0.398394,2.517,2.62932
0.655725,-0.398394,2.517,2.63135
0.668906,-0.401401,2.536,2.65327
0.677137,-0.401401,2.536,2.65536
0.685368,-0.401401,2.536,2.65747
0.693599,-0.401401,2.536,2.65961
0.70183,-0.401401,2.536,2.66176
0.710062,-0.401401,2.536,2.66395
0.718293,-0.401401,2.536,2.66615
0.726524,-0.401401,2.536,2.66838
0.734755,-0.401401,2.536,2.67063
0.742987,-0.401401,2.536,2.67291
0.751218,-0.401401,2.536,2.67521
0.759449,-0.401401,2.536,2.67753
0.76768,-0.401401,2.536,2.67988
0.775912,-0.401401,2.536,2.68225
0.784143,-0.401401,2.536,2.68464
0.792374,-0.401401,2.536,2.68706
0.800605,-0.401401,2.536,2.6895
0.808836,-0.401401,2.536,2.69196
0.817068,-0.401401,2.536,2.69444
0.825299,-0.401401,2.536,2.69695
0.83353,-0.401401,2.536,2.69948
0.841761,-0.401401,2.536,2.70203
0.849993,-0.401401,2.536,2.70461
0.858224,-0.401401,2.536,2.70721
0.866455,-0.401401,2.536,2.70983
0.874686,-0.401401,2.536,2.71247
0.882918,-0.401401,2.536,2.71514
0.884472,-0.398394,2.517,2.69746
0.892642,-0.398394,2.517,2.70015
0.900811,-0.398394,2.517,2.70286
0.90248,-0.395545,2.499,2.68625
0.910591,-0.395545,2.499,2.68898
0.918703,-0.395545,2.499,2.69174
0.920138,-0.392696,2.481,2.67511
0.928191,-0.392696,2.481,2.67789
0.936243,-0.392696,2.481,2.68069
0.944296,-0.392696,2.481,2.68352
0.952349,-0.392696,2.481,2.68636
0.960401,-0.392696,2.481,2.68923
0.961428,-0.389846,2.463,2.67258
0.969422,-0.389846,2.463,2.67547
0.977417,-0.389846,2.463,2.67838
0.985411,-0.389846,2.463,2.6813
0.986145,-0.386997,2.445,2.66463
0.994081,-0.386997,2.445,2.66758
1.00202,-0.386997,2.445,2.67055
1.00995,-0.386997,2.445,2.67354
1.01789,-0.386997,2.445,2.67654
1.02582,-0.386997,2.445,2.67957
nan,nan,nan,NaN
nan,nan,nan,NaN
nan,nan,nan,NaN
1.15705,-0.423402,2.675,2.94511
1.16574,-0.423402,2.675,2.94853
1.2631,-0.455375,2.877,3.17489
1.27244,-0.455375,2.877,3.17862
1.30361,-0.463131,2.926,3.23657
1.31311,-0.463131,2.926,3.2404
1.3226,-0.463131,2.926,3.24426
1.3321,-0.463131,2.926,3.24815
1.35306,-0.467088,2.951,3.27984
1.36264,-0.467088,2.951,3.2838
1.37222,-0.467088,2.951,3.28779
1.39397,-0.471203,2.977,3.3208
1.40363,-0.471203,2.977,3.32487
1.41329,-0.471203,2.977,3.32896
1.42296,-0.471203,2.977,3.33307
1.43262,-0.471203,2.977,3.33721
1.42969,-0.467088,2.951,3.31219
1.43926,-0.467088,2.951,3.31633
1.46161,-0.471203,2.977,3.34976
1.47127,-0.471203,2.977,3.35398
1.468,-0.467088,2.951,3.3289
1.47758,-0.467088,2.951,3.33314
1.48716,-0.467088,2.951,3.33739
1.49673,-0.467088,2.951,3.34167
1.51958,-0.471203,2.977,3.37546
1.55647,-0.479592,3.03,3.43999
1.56631,-0.479592,3.03,3.44445
1.57614,-0.479592,3.03,3.44893
1.61424,-0.488139,3.084,3.51498
1.66954,-0.501751,3.17,3.61774
1.67983,-0.501751,3.17,3.6225
1.73811,-0.515997,3.26,3.73026
1.80018,-0.531192,3.356,3.8452
1.81108,-0.531192,3.356,3.85031
1.87734,-0.547336,3.458,3.97263
1.90768,-0.552876,3.493,4.01821
1.9388,-0.558574,3.529,4.06507
1.95025,-0.558574,3.529,4.07054
1.98227,-0.564431,3.566,4.11878
1.99385,-0.564431,3.566,4.12436
2.00542,-0.564431,3.566,4.12997
2.03849,-0.570445,3.604,4.17967
2.05019,-0.570445,3.604,4.18539
2.06189,-0.570445,3.604,4.19113
2.05172,-0.564431,3.566,4.15265
2.06329,-0.564431,3.566,4.15838
2.07487,-0.564431,3.566,4.16413
2.08644,-0.564431,3.566,4.16991
2.07625,-0.558574,3.529,4.13239
2.0877,-0.558574,3.529,4.13816
2.05692,-0.547336,3.458,4.06058
2.04722,-0.541796,3.423,4.02512
2.05833,-0.541796,3.423,4.03078
2.02893,-0.531192,3.356,3.95746
2.02037,-0.526127,3.324,3.92526
2.03116,-0.526127,3.324,3.93083
2.00264,-0.515997,3.26,3.86062
1.99469,-0.511248,3.23,3.83054
2.00517,-0.511248,3.23,3.83601
1.96012,-0.497161,3.141,3.73565
1.91762,-0.483865,3.057,3.64097
1.92754,-0.483865,3.057,3.6462
1.90324,-0.475318,3.003,3.58696
1.87986,-0.467088,2.951,3.52994
1.88944,-0.467088,2.951,3.53505
1.86684,-0.459174,2.901,3.48019
1.86074,-0.455375,2.877,3.45642
1.87007,-0.455375,2.877,3.46146
1.84806,-0.447777,2.829,3.40867
1.84214,-0.444137,2.806,3.38591
1.83607,-0.440496,2.783,3.36308
1.84511,-0.440496,2.783,3.36802
1.83948,-0.437014,2.761,3.34631
1.83371,-0.433532,2.739,3.32454
1.8426,-0.433532,2.739,3.32945
1.85149,-0.433532,2.739,3.33438
1.84544,-0.43005,2.717,3.3125
-2.32817,-0.520302,3.356,4.1175
-2.31727,-0.520302,3.356,4.11135
-2.30638,-0.520302,3.356,4.10522
-2.29549,-0.520302,3.356,4.09911
-2.2846,-0.520302,3.356,4.09302
-2.29606,-0.525418,3.389,4.12714
-2.26281,-0.520302,3.356,4.0809
-2.25192,-0.520302,3.356,4.07487
-2.24102,-0.520302,3.356,4.06886
-2.23013,-0.520302,3.356,4.06287
-2.21924,-0.520302,3.356,4.0569
-2.20835,-0.520302,3.356,4.05096
-2.19745,-0.520302,3.356,4.04503
-2.20806,-0.525418,3.389,4.07884
-2.19706,-0.525418,3.389,4.07289
-2.18606,-0.525418,3.389,4.06697
-2.17506,-0.525418,3.389,4.06107
-2.16406,-0.525418,3.389,4.05519
-2.15306,-0.525418,3.389,4.04933
-2.14206,-0.525418,3.389,4.04349
-2.13106,-0.525418,3.389,4.03767
-2.12006,-0.525418,3.389,4.03188
-2.08853,-0.520302,3.356,3.9869
-2.05782,-0.515341,3.324,3.94325
-2.04703,-0.515341,3.324,3.93763
-2.03625,-0.515341,3.324,3.93203
-2.00596,-0.51038,3.292,3.88865
-1.99527,-0.51038,3.292,3.88315
-1.98459,-0.51038,3.292,3.87767
-1.9739,-0.51038,3.292,3.87221
-1.96322,-0.51038,3.292,3.86678
nan,nan,nan,NaN
nan,nan,nan,NaN
nan,nan,nan,NaN
nan,nan,nan,NaN
nan,nan,nan,NaN
nan,nan,nan,NaN
nan,nan,nan,NaN
nan,nan,nan,NaN
nan,nan,nan,NaN
nan,nan,nan,NaN
nan,nan,nan,NaN
nan,nan,nan,NaN
nan,nan,nan,NaN
nan,nan,nan,NaN
nan,nan,nan,NaN
nan,nan,nan,NaN
nan,nan,nan,NaN
nan,nan,nan,NaN
nan,nan,nan,NaN
nan,nan,nan,NaN
nan,nan,nan,NaN
nan,nan,nan,NaN
nan,nan,nan,NaN
nan,nan,nan,NaN
nan,nan,nan,NaN
nan,nan,nan,NaN
nan,nan,nan,NaN
nan,nan,nan,NaN
nan,nan,nan,NaN
nan,nan,nan,NaN
-1.12385,-0.351467,2.267,2.55457
-1.11649,-0.351467,2.267,2.55135
-1.10913,-0.351467,2.267,2.54813
-1.10177,-0.351467,2.267,2.54494
-1.10166,-0.353793,2.282,2.55858
-1.09425,-0.353793,2.282,2.5554
-1.08684,-0.353793,2.282,2.55224
-1.087,-0.356273,2.298,2.56697
-1.07954,-0.356273,2.298,2.56382
-1.07209,-0.356273,2.298,2.56068
-1.06463,-0.356273,2.298,2.55757
-1.06407,-0.358599,2.313,2.57115
-1.05656,-0.358599,2.313,2.56805
-1.04905,-0.358599,2.313,2.56497
-1.04875,-0.36108,2.329,2.57963
-1.04119,-0.36108,2.329,2.57657
-1.03363,-0.36108,2.329,2.57352
-1.02607,-0.36108,2.329,2.5705
-1.02551,-0.36356,2.345,2.58513
-1.0179,-0.36356,2.345,2.58212
-1.01029,-0.36356,2.345,2.57912
-1.00268,-0.36356,2.345,2.57615
-0.995066,-0.36356,2.345,2.5732
-0.987455,-0.36356,2.345,2.57027
-0.986529,-0.366041,2.361,2.58487
-0.978866,-0.366041,2.361,2.58195
-0.971203,-0.366041,2.361,2.57906
-0.96354,-0.366041,2.361,2.57618
-0.955876,-0.366041,2.361,2.57333
-0.948213,-0.366041,2.361,2.57049
-0.946924,-0.368521,2.377,2.58507
-0.939209,-0.368521,2.377,2.58226
-0.931494,-0.368521,2.377,2.57946
-0.923778,-0.368521,2.377,2.57668
-0.909897,-0.366041,2.361,2.5566
-0.902234,-0.366041,2.361,2.55389
-0.894571,-0.366041,2.361,2.55119
-0.886907,-0.366041,2.361,2.54851
-0.885203,-0.368521,2.377,2.56311
-0.877488,-0.368521,2.377,2.56045
-0.869772,-0.368521,2.377,2.55782
-0.862057,-0.368521,2.377,2.55521
-0.854342,-0.368521,2.377,2.55261
-0.846627,-0.368521,2.377,2.55004
-0.838912,-0.368521,2.377,2.54749
-0.831197,-0.368521,2.377,2.54496
-0.823481,-0.368521,2.377,2.54245
-0.815766,-0.368521,2.377,2.53996
-0.808051,-0.368521,2.377,2.5375
-0.800336,-0.368521,2.377,2.53505
-0.792621,-0.368521,2.377,2.53262
-0.784906,-0.368521,2.377,2.53022
-0.777191,-0.368521,2.377,2.52784
-0.769475,-0.368521,2.377,2.52548
-0.76176,-0.368521,2.377,2.52314
-0.754045,-0.368521,2.377,2.52082
-0.74633,-0.368521,2.377,2.51852
-0.738615,-0.368521,2.377,2.51625
-0.736127,-0.371157,2.394,2.53197
-0.728357,-0.371157,2.394,2.52972
-0.720586,-0.371157,2.394,2.5275
-0.712816,-0.371157,2.394,2.52529
-0.705046,-0.371157,2.394,2.52311
-0.697275,-0.371157,2.394,2.52095
-0.694401,-0.373793,2.411,2.5367
-0.686576,-0.373793,2.411,2.53457
-0.67875,-0.373793,2.411,2.53246
-0.675655,-0.376428,2.428,2.54821
-0.667775,-0.376428,2.428,2.54614
-0.659894,-0.376428,2.428,2.54408
-0.656578,-0.379064,2.445,2.55985
-0.648643,-0.379064,2.445,2.55782
-0.640707,-0.379064,2.445,2.55582
-0.637429,-0.381854,2.463,2.57264
-0.629435,-0.381854,2.463,2.57068
-0.621441,-0.381854,2.463,2.56873
-0.613446,-0.381854,2.463,2.56681
-0.609877,-0.384645,2.481,2.58365
-0.601824,-0.384645,2.481,2.58176
-0.593771,-0.384645,2.481,2.5799
-0.585719,-0.384645,2.481,2.57806
-0.577666,-0.384645,2.481,2.57624
-0.569613,-0.384645,2.481,2.57445
-0.561561,-0.384645,2.481,2.57268
-0.553508,-0.384645,2.481,2.57093
-0.545455,-0.384645,2.481,2.56921
-0.537403,-0.384645,2.481,2.56751
-0.53319,-0.387436,2.499,2.58445
-0.525079,-0.387436,2.499,2.58279
-0.513244,-0.384645,2.481,2.56256
-0.505192,-0.384645,2.481,2.56096
-0.500746,-0.387436,2.499,2.57796
-0.489086,-0.384645,2.481,2.55783
-0.481034,-0.384645,2.481,2.55631
-0.472981,-0.384645,2.481,2.5548
-0.464928,-0.384645,2.481,2.55333
-0.456875,-0.384645,2.481,2.55187
-0.448823,-0.384645,2.481,2.55044
-0.44077,-0.384645,2.481,2.54904
-0.432717,-0.384645,2.481,2.54766
-0.424665,-0.384645,2.481,2.5463
-0.416612,-0.384645,2.481,2.54497
-0.408559,-0.384645,2.481,2.54367
-0.400506,-0.384645,2.481,2.54238
-0.392454,-0.384645,2.481,2.54113
-0.381612,-0.381854,2.463,2.52147
-0.373618,-0.381854,2.463,2.52027
-0.365624,-0.381854,2.463,2.5191
-0.357629,-0.381854,2.463,2.51795
-0.349635,-0.381854,2.463,2.51683
-0.341641,-0.381854,2.463,2.51573
-0.333646,-0.381854,2.463,2.51466
-0.323272,-0.379064,2.445,2.49524
-0.315336,-0.379064,2.445,2.49422
-0.3074,-0.379064,2.445,2.49323
-0.299465,-0.379064,2.445,2.49227
-0.289502,-0.376428,2.428,2.474
-0.281621,-0.376428,2.428,2.47309
-0.275657,-0.379064,2.445,2.48952
-0.26586,-0.376428,2.428,2.47135
-0.257979,-0.376428,2.428,2.47051
-0.251849,-0.379064,2.445,2.48699
-0.243914,-0.379064,2.445,2.4862
-0.235978,-0.379064,2.445,2.48544
-0.228042,-0.379064,2.445,2.4847
-0.220106,-0.379064,2.445,2.48398
-0.21217,-0.379064,2.445,2.48329
-0.204234,-0.379064,2.445,2.48263
-0.196298,-0.379064,2.445,2.48198
-0.188363,-0.379064,2.445,2.48137
-0.180427,-0.379064,2.445,2.48078
-0.172491,-0.379064,2.445,2.48022
-0.164555,-0.379064,2.445,2.47968
-0.156619,-0.379064,2.445,2.47916
-0.148683,-0.379064,2.445,2.47867
-0.140747,-0.379064,2.445,2.47821
-0.132812,-0.379064,2.445,2.47777
-0.124876,-0.379064,2.445,2.47736
-0.116127,-0.376428,2.428,2.45975
-0.108246,-0.376428,2.428,2.45939
-0.101068,-0.379064,2.445,2.47627
-0.0931322,-0.379064,2.445,2.47596
-0.0851963,-0.379064,2.445,2.47568
-0.0772605,-0.379064,2.445,2.47542
-0.0693246,-0.379064,2.445,2.47518
-0.0613887,-0.379064,2.445,2.47497
-0.0534529,-0.379064,2.445,2.47479
-0.045517,-0.379064,2.445,2.47463
-0.0375812,-0.379064,2.445,2.4745
-0.0298635,-0.381854,2.463,2.4926
-0.0218693,-0.381854,2.463,2.49252
-0.013875,-0.381854,2.463,2.49246
-0.00588068,-0.381854,2.463,2.49243
0.0021136,-0.381854,2.463,2.49243
0.0101079,-0.381854,2.463,2.49245
0.0181022,-0.381854,2.463,2.49249
0.0262872,-0.384645,2.481,2.51078
0.034589,-0.387436,2.499,2.52909
0.0427002,-0.387436,2.499,2.52922
0.0508113,-0.387436,2.499,2.52937
0.0589224,-0.387436,2.499,2.52954
0.0670336,-0.387436,2.499,2.52974
0.0751447,-0.387436,2.499,2.52997
0.0832558,-0.387436,2.499,2.53023
0.091367,-0.387436,2.499,2.5305
0.0994781,-0.387436,2.499,2.53081
0.107589,-0.387436,2.499,2.53114
0.116534,-0.390226,2.517,2.54973
0.124703,-0.390226,2.517,2.55012
0.132873,-0.390226,2.517,2.55053
0.141042,-0.390226,2.517,2.55097
0.149212,-0.390226,2.517,2.55144
0.156256,-0.387436,2.499,2.53368
0.164367,-0.387436,2.499,2.53419
0.172478,-0.387436,2.499,2.53473
0.180589,-0.387436,2.499,2.53529
0.188701,-0.387436,2.499,2.53589
0.196812,-0.387436,2.499,2.5365
0.204923,-0.387436,2.499,2.53714
0.213034,-0.387436,2.499,2.53781
0.221145,-0.387436,2.499,2.53851
0.227605,-0.384645,2.481,2.52094
0.235658,-0.384645,2.481,2.52168
0.24371,-0.384645,2.481,2.52244
0.251763,-0.384645,2.481,2.52323
0.259816,-0.384645,2.481,2.52405
0.267868,-0.384645,2.481,2.52489
0.277923,-0.387436,2.499,2.54408
0.286034,-0.387436,2.499,2.54498
0.294145,-0.387436,2.499,2.5459
0.302256,-0.387436,2.499,2.54685
0.310368,-0.387436,2.499,2.54783
0.318479,-0.387436,2.499,2.54883
0.328942,-0.390226,2.517,2.56822
0.337112,-0.390226,2.517,2.56928
0.345281,-0.390226,2.517,2.57037
0.353451,-0.390226,2.517,2.57148
0.36162,-0.390226,2.517,2.57261
0.36979,-0.390226,2.517,2.57377
0.380813,-0.393172,2.536,2.5944
0.389044,-0.393172,2.536,2.59562
0.397275,-0.393172,2.536,2.59686
0.408544,-0.396118,2.555,2.6176
0.416837,-0.396118,2.555,2.61891
0.42513,-0.396118,2.555,2.62024
0.433423,-0.396118,2.555,2.6216
0.441716,-0.396118,2.555,2.62298
0.446662,-0.393172,2.536,2.60488
0.454894,-0.393172,2.536,2.6063
0.463125,-0.393172,2.536,2.60775
0.471356,-0.393172,2.536,2.60923
0.479587,-0.393172,2.536,2.61072
0.487819,-0.393172,2.536,2.61225
0.49605,-0.393172,2.536,2.6138
0.504281,-0.393172,2.536,2.61537
0.512512,-0.393172,2.536,2.61697
0.520743,-0.393172,2.536,2.6186
0.525012,-0.390226,2.517,2.60062
0.533181,-0.390226,2.517,2.60228
0.541351,-0.390226,2.517,2.60396
0.54952,-0.390226,2.517,2.60567
0.55769,-0.390226,2.517,2.60741
0.565859,-0.390226,2.517,2.60917
0.574029,-0.390226,2.517,2.61095
0.582199,-0.390226,2.517,2.61276
0.590368,-0.390226,2.517,2.61459
0.598538,-0.390226,2.517,2.61645
0.606707,-0.390226,2.517,2.61833
0.614877,-0.390226,2.517,2.62024
0.623046,-0.390226,2.517,2.62217
0.631216,-0.390226,2.517,2.62412
0.639385,-0.390226,2.517,2.6261
0.647555,-0.390226,2.517,2.6281
0.655725,-0.390226,2.517,2.63012
0.668906,-0.393172,2.536,2.65204
0.677137,-0.393172,2.536,2.65413
0.685368,-0.393172,2.536,2.65624
0.693599,-0.393172,2.536,2.65838
0.70183,-0.393172,2.536,2.66054
0.710062,-0.393172,2.536,2.66272
0.718293,-0.393172,2.536,2.66492
0.726524,-0.393172,2.536,2.66716
0.734755,-0.393172,2.536,2.66941
0.742987,-0.393172,2.536,2.67169
0.751218,-0.393172,2.536,2.67399
0.759449,-0.393172,2.536,2.67631
0.76768,-0.393172,2.536,2.67866
0.775912,-0.393172,2.536,2.68103
0.784143,-0.393172,2.536,2.68342
0.792374,-0.393172,2.536,2.68584
0.800605,-0.393172,2.536,2.68828
0.808836,-0.393172,2.536,2.69074
0.817068,-0.393172,2.536,2.69323
0.825299,-0.393172,2.536,2.69574
0.83353,-0.393172,2.536,2.69827
0.841761,-0.393172,2.536,2.70082
0.849993,-0.393172,2.536,2.7034
0.858224,-0.393172,2.536,2.706
0.866455,-0.393172,2.536,2.70862
0.874686,-0.393172,2.536,2.71126
0.882918,-0.393172,2.536,2.71393
0.884472,-0.390226,2.517,2.69627
0.892642,-0.390226,2.517,2.69896
0.900811,-0.390226,2.517,2.70167
0.90248,-0.387436,2.499,2.68507
0.910591,-0.387436,2.499,2.6878
0.918703,-0.387436,2.499,2.69056
0.920138,-0.384645,2.481,2.67394
0.928191,-0.384645,2.481,2.67672
0.936243,-0.384645,2.481,2.67953
0.944296,-0.384645,2.481,2.68235
0.952349,-0.384645,2.481,2.6852
0.960401,-0.384645,2.481,2.68806
0.961428,-0.381854,2.463,2.67143
0.969422,-0.381854,2.463,2.67432
0.977417,-0.381854,2.463,2.67722
0.985411,-0.381854,2.463,2.68015
0.986145,-0.379064,2.445,2.66349
0.994081,-0.379064,2.445,2.66644
1.00202,-0.379064,2.445,2.66941
1.00995,-0.379064,2.445,2.6724
1.01789,-0.379064,2.445,2.67541
1.02582,-0.379064,2.445,2.67844
nan,nan,nan,NaN
nan,nan,nan,NaN
nan,nan,nan,NaN
nan,nan,nan,NaN
nan,nan,nan,NaN
nan,nan,nan,NaN
1.30517,-0.457512,2.951,3.25902
1.31475,-0.457512,2.951,3.26286
1.32433,-0.457512,2.951,3.26674
1.34566,-0.461543,2.977,3.29945
1.35532,-0.461543,2.977,3.3034
1.36498,-0.461543,2.977,3.30737
1.37464,-0.461543,2.977,3.31137
1.38431,-0.461543,2.977,3.3154
1.40614,-0.465574,3.003,3.34843
1.41589,-0.465574,3.003,3.35254
1.42564,-0.465574,3.003,3.35667
1.43538,-0.465574,3.003,3.36082
1.44513,-0.465574,3.003,3.36499
nan,nan,nan,NaN
nan,nan,nan,NaN
1.46161,-0.461543,2.977,3.34841
1.47127,-0.461543,2.977,3.35264
1.468,-0.457512,2.951,3.32757
1.47758,-0.457512,2.951,3.33181
1.50026,-0.461543,2.977,3.36546
1.50992,-0.461543,2.977,3.36978
1.53285,-0.465574,3.003,3.40359
1.55647,-0.46976,3.03,3.43863
1.56631,-0.46976,3.03,3.44309
1.59019,-0.473946,3.057,3.4783
1.6289,-0.482473,3.112,3.54551
nan,nan,nan,NaN
1.72753,-0.505418,3.26,3.72389
1.73811,-0.505418,3.26,3.72882
1.80018,-0.520302,3.356,3.84371
1.81108,-0.520302,3.356,3.84882
1.87734,-0.536116,3.458,3.9711
1.90768,-0.541542,3.493,4.01666
1.9388,-0.547123,3.529,4.06351
1.95025,-0.547123,3.529,4.06899
1.98227,-0.552859,3.566,4.11721
1.99385,-0.552859,3.566,4.1228
2.00542,-0.552859,3.566,4.12841
2.03849,-0.558751,3.604,4.17809
2.05019,-0.558751,3.604,4.18381
2.06189,-0.558751,3.604,4.18956
2.05172,-0.552859,3.566,4.15109
2.06329,-0.552859,3.566,4.15683
2.07487,-0.552859,3.566,4.16258
2.08644,-0.552859,3.566,4.16836
2.07625,-0.547123,3.529,4.13086
2.0877,-0.547123,3.529,4.13663
2.05692,-0.536116,3.458,4.05908
2.04722,-0.530689,3.423,4.02364
2.05833,-0.530689,3.423,4.0293
2.02893,-0.520302,3.356,3.95601
2.02037,-0.515341,3.324,3.92383
2.03116,-0.515341,3.324,3.9294
2.00264,-0.505418,3.26,3.85922
1.99469,-0.500767,3.23,3.82916
2.00517,-0.500767,3.23,3.83463
1.96012,-0.486969,3.141,3.73431
1.91762,-0.473946,3.057,3.63966
1.92754,-0.473946,3.057,3.6449
1.90324,-0.465574,3.003,3.58568
1.87986,-0.457512,2.951,3.52868
1.88944,-0.457512,2.951,3.53379
1.86684,-0.44976,2.901,3.47896
1.86074,-0.446039,2.877,3.4552
1.87007,-0.446039,2.877,3.46024
1.84806,-0.438598,2.829,3.40748
1.84214,-0.435032,2.806,3.38473
1.83607,-0.431466,2.783,3.36191
1.84511,-0.431466,2.783,3.36685
1.83948,-0.428055,2.761,3.34515
1.83371,-0.424644,2.739,3.32339
1.8426,-0.424644,2.739,3.32831
1.85149,-0.424644,2.739,3.33324
1.84544,-0.421234,2.717,3.31137
-2.37465,-0.519582,3.423,4.19831
-2.36354,-0.519582,3.423,4.19204
-2.35243,-0.519582,3.423,4.18579
-2.34132,-0.519582,3.423,4.17955
-2.33021,-0.519582,3.423,4.17334
-2.3191,-0.519582,3.423,4.16715
-2.28506,-0.514421,3.389,4.11964
-2.27406,-0.514421,3.389,4.11355
-2.26306,-0.514421,3.389,4.10748
-2.25206,-0.514421,3.389,4.10143
-2.24106,-0.514421,3.389,4.0954
-2.23006,-0.514421,3.389,4.08939
-2.21906,-0.514421,3.389,4.0834
-2.20806,-0.514421,3.389,4.07744
-2.19706,-0.514421,3.389,4.07149
-2.18606,-0.514421,3.389,4.06557
-2.17506,-0.514421,3.389,4.05966
-2.16406,-0.514421,3.389,4.05378
-2.15306,-0.514421,3.389,4.04792
-2.14206,-0.514421,3.389,4.04208
-2.13106,-0.514421,3.389,4.03626
-2.12006,-0.514421,3.389,4.03046
-2.08853,-0.509412,3.356,3.9855
-2.05782,-0.504555,3.324,3.94185
-2.04703,-0.504555,3.324,3.93623
-2.03625,-0.504555,3.324,3.93063
-2.00596,-0.499698,3.292,3.88726
-1.99527,-0.499698,3.292,3.88176
-1.98459,-0.499698,3.292,3.87628
-1.95472,-0.49484,3.26,3.83319
-1.94413,-0.49484,3.26,3.82781
nan,nan,nan,NaN
nan,nan,nan,NaN
nan,nan,nan,NaN
nan,nan,nan,NaN
nan,nan,nan,NaN
nan,nan,nan,NaN
nan,nan,nan,NaN
nan,nan,nan,NaN
nan,nan,nan,NaN
nan,nan,nan,NaN
nan,nan,nan,NaN
nan,nan,nan,NaN
nan,nan,nan,NaN
nan,nan,nan,NaN
nan,nan,nan,NaN
nan,nan,nan,NaN
nan,nan,nan,NaN
nan,nan,nan,NaN
nan,nan,nan,NaN
nan,nan,nan,NaN
nan,nan,nan,NaN
nan,nan,nan,NaN
nan,nan,nan,NaN
nan,nan,nan,NaN
nan,nan,nan,NaN
nan,nan,nan,NaN
nan,nan,nan,NaN
nan,nan,nan,NaN
nan,nan,nan,NaN
nan,nan,nan,NaN
nan,nan,nan,NaN
-1.12388,-0.346388,2.282,2.56722
-1.11647,-0.346388,2.282,2.56398
-1.10906,-0.346388,2.282,2.56077
-1.10166,-0.346388,2.282,2.55757
-1.10192,-0.348817,2.298,2.5723
-1.09446,-0.348817,2.298,2.56911
-1.087,-0.348817,2.298,2.56594
-1.07954,-0.348817,2.298,2.56279
-1.07908,-0.351094,2.313,2.57637
-1.07158,-0.351094,2.313,2.57323
-1.06407,-0.351094,2.313,2.57011
-1.06387,-0.353522,2.329,2.58477
-1.05631,-0.353522,2.329,2.58167
-1.04875,-0.353522,2.329,2.57858
-1.04119,-0.353522,2.329,2.57552
-1.03363,-0.353522,2.329,2.57247
-1.03312,-0.355951,2.345,2.5871
-1.02551,-0.355951,2.345,2.58407
-1.0179,-0.355951,2.345,2.58106
-1.01029,-0.355951,2.345,2.57806
-1.00268,-0.355951,2.345,2.57509
-0.995066,-0.355951,2.345,2.57214
-0.987455,-0.355951,2.345,2.5692
-0.986529,-0.35838,2.361,2.5838
-0.978866,-0.35838,2.361,2.58088
-0.971203,-0.35838,2.361,2.57798
-0.96354,-0.35838,2.361,2.5751
-0.955876,-0.35838,2.361,2.57225
-0.948213,-0.35838,2.361,2.56941
-0.946924,-0.360808,2.377,2.58398
-0.939209,-0.360808,2.377,2.58117
-0.931494,-0.360808,2.377,2.57837
-0.923778,-0.360808,2.377,2.57559
-0.909897,-0.35838,2.361,2.55552
-0.902234,-0.35838,2.361,2.5528
-0.894571,-0.35838,2.361,2.5501
-0.886907,-0.35838,2.361,2.54742
-0.885203,-0.360808,2.377,2.56201
-0.877488,-0.360808,2.377,2.55935
-0.869772,-0.360808,2.377,2.55672
-0.862057,-0.360808,2.377,2.55411
-0.854342,-0.360808,2.377,2.55151
-0.846627,-0.360808,2.377,2.54894
-0.838912,-0.360808,2.377,2.54639
-0.831197,-0.360808,2.377,2.54386
-0.823481,-0.360808,2.377,2.54134
-0.815766,-0.360808,2.377,2.53886
-0.808051,-0.360808,2.377,2.53639
-0.800336,-0.360808,2.377,2.53394
-0.792621,-0.360808,2.377,2.53151
-0.784906,-0.360808,2.377,2.52911
-0.777191,-0.360808,2.377,2.52672
-0.769475,-0.360808,2.377,2.52436
-0.76176,-0.360808,2.377,2.52202
-0.754045,-0.360808,2.377,2.5197
-0.74633,-0.360808,2.377,2.5174
-0.738615,-0.360808,2.377,2.51513
-0.736127,-0.363389,2.394,2.53084
-0.728357,-0.363389,2.394,2.52859
-0.720586,-0.363389,2.394,2.52637
-0.712816,-0.363389,2.394,2.52416
-0.710052,-0.365969,2.411,2.53989
-0.702227,-0.365969,2.411,2.53771
-0.694401,-0.365969,2.411,2.53556
-0.686576,-0.365969,2.411,2.53342
-0.67875,-0.365969,2.411,2.53132
-0.675655,-0.36855,2.428,2.54706
-0.667775,-0.36855,2.428,2.54498
-0.659894,-0.36855,2.428,2.54293
-0.656578,-0.37113,2.445,2.55868
-0.648643,-0.37113,2.445,2.55666
-0.645424,-0.373862,2.463,2.57346
-0.637429,-0.373862,2.463,2.57147
-0.629435,-0.373862,2.463,2.5695
-0.621441,-0.373862,2.463,2.56755
-0.613446,-0.373862,2.463,2.56563
-0.609877,-0.376595,2.481,2.58247
-0.601824,-0.376595,2.481,2.58058
-0.593771,-0.376595,2.481,2.57871
-0.585719,-0.376595,2.481,2.57687
-0.577666,-0.376595,2.481,2.57505
-0.569613,-0.376595,2.481,2.57326
-0.561561,-0.376595,2.481,2.57149
-0.553508,-0.376595,2.481,2.56974
-0.545455,-0.376595,2.481,2.56802
-0.537403,-0.376595,2.481,2.56632
-0.53319,-0.379327,2.499,2.58325
-0.525079,-0.379327,2.499,2.58159
-0.513244,-0.376595,2.481,2.56137
-0.505192,-0.376595,2.481,2.55977
-0.500746,-0.379327,2.499,2.57675
-0.489086,-0.376595,2.481,2.55664
-0.481034,-0.376595,2.481,2.55511
-0.472981,-0.376595,2.481,2.5536
-0.464928,-0.376595,2.481,2.55213
-0.456875,-0.376595,2.481,2.55067
-0.448823,-0.376595,2.481,2.54924
-0.44077,-0.376595,2.481,2.54784
-0.432717,-0.376595,2.481,2.54645
-0.424665,-0.376595,2.481,2.5451
-0.416612,-0.376595,2.481,2.54377
-0.408559,-0.376595,2.481,2.54246
-0.400506,-0.376595,2.481,2.54118
-0.392454,-0.376595,2.481,2.53992
-0.381612,-0.373862,2.463,2.52027
-0.373618,-0.373862,2.463,2.51907
-0.365624,-0.373862,2.463,2.5179
-0.357629,-0.373862,2.463,2.51675
-0.349635,-0.373862,2.463,2.51563
-0.341641,-0.373862,2.463,2.51453
-0.333646,-0.373862,2.463,2.51346
-0.323272,-0.37113,2.445,2.49405
-0.315336,-0.37113,2.445,2.49303
-0.3074,-0.37113,2.445,2.49204
-0.299465,-0.37113,2.445,2.49107
-0.289502,-0.36855,2.428,2.47282
-0.281621,-0.36855,2.428,2.47191
-0.275657,-0.37113,2.445,2.48832
-0.26586,-0.36855,2.428,2.47016
-0.257979,-0.36855,2.428,2.46933
-0.251849,-0.37113,2.445,2.4858
-0.243914,-0.37113,2.445,2.48501
-0.235978,-0.37113,2.445,2.48424
-0.228042,-0.37113,2.445,2.4835
-0.220106,-0.37113,2.445,2.48278
-0.21217,-0.37113,2.445,2.48209
-0.204234,-0.37113,2.445,2.48143
-0.196298,-0.37113,2.445,2.48079
-0.188363,-0.37113,2.445,2.48017
-0.180427,-0.37113,2.445,2.47958
-0.172491,-0.37113,2.445,2.47902
-0.164555,-0.37113,2.445,2.47848
-0.156619,-0.37113,2.445,2.47796
-0.148683,-0.37113,2.445,2.47747
-0.140747,-0.37113,2.445,2.47701
-0.132812,-0.37113,2.445,2.47657
-0.124876,-0.37113,2.445,2.47616
-0.11694,-0.37113,2.445,2.47577
-0.109004,-0.37113,2.445,2.47541
-0.101068,-0.37113,2.445,2.47507
-0.0931322,-0.37113,2.445,2.47476
-0.0851963,-0.37113,2.445,2.47447
-0.0772605,-0.37113,2.445,2.47421
-0.069835,-0.373862,2.463,2.49219
-0.0618407,-0.373862,2.463,2.49198
-0.0538464,-0.373862,2.463,2.49179
-0.0458521,-0.373862,2.463,2.49163
-0.0378578,-0.373862,2.463,2.4915
-0.0298635,-0.373862,2.463,2.49139
-0.0218693,-0.373862,2.463,2.49131
-0.013875,-0.373862,2.463,2.49125
-0.00588068,-0.373862,2.463,2.49122
0.00212905,-0.376595,2.481,2.50942
0.0101818,-0.376595,2.481,2.50944
0.0182345,-0.376595,2.481,2.50949
0.0264779,-0.379327,2.499,2.52776
0.034589,-0.379327,2.499,2.52786
0.0427002,-0.379327,2.499,2.52799
0.0508113,-0.379327,2.499,2.52814
0.0589224,-0.379327,2.499,2.52831
0.0670336,-0.379327,2.499,2.52851
0.0751447,-0.379327,2.499,2.52874
0.0832558,-0.379327,2.499,2.529
0.0920251,-0.382059,2.517,2.54749
0.100195,-0.382059,2.517,2.5478
0.108364,-0.382059,2.517,2.54814
0.116534,-0.382059,2.517,2.5485
0.124703,-0.382059,2.517,2.54888
0.132873,-0.382059,2.517,2.5493
0.141042,-0.382059,2.517,2.54974
0.149212,-0.382059,2.517,2.5502
0.157382,-0.382059,2.517,2.55069
0.165551,-0.382059,2.517,2.55121
0.173721,-0.382059,2.517,2.55175
0.18189,-0.382059,2.517,2.55232
0.19006,-0.382059,2.517,2.55292
0.198229,-0.382059,2.517,2.55354
0.206399,-0.382059,2.517,2.55418
0.214568,-0.382059,2.517,2.55486
0.222738,-0.382059,2.517,2.55556
0.229256,-0.379327,2.499,2.538
0.237367,-0.379327,2.499,2.53875
0.245479,-0.379327,2.499,2.53952
0.25359,-0.379327,2.499,2.54031
0.261701,-0.379327,2.499,2.54114
0.269812,-0.379327,2.499,2.54199
0.277923,-0.379327,2.499,2.54286
0.286034,-0.379327,2.499,2.54376
0.296264,-0.382059,2.517,2.56301
0.304434,-0.382059,2.517,2.56397
0.312603,-0.382059,2.517,2.56495
0.320773,-0.382059,2.517,2.56596
0.328942,-0.382059,2.517,2.56699
0.337112,-0.382059,2.517,2.56805
0.345281,-0.382059,2.517,2.56914
0.356119,-0.384943,2.536,2.58965
0.36435,-0.384943,2.536,2.5908
0.372581,-0.384943,2.536,2.59197
0.380813,-0.384943,2.536,2.59316
0.389044,-0.384943,2.536,2.59438
0.397275,-0.384943,2.536,2.59563
0.408544,-0.387827,2.555,2.61636
0.416837,-0.387827,2.555,2.61767
0.42513,-0.387827,2.555,2.619
0.433423,-0.387827,2.555,2.62036
0.441716,-0.387827,2.555,2.62175
0.450009,-0.387827,2.555,2.62316
0.458302,-0.387827,2.555,2.62459
0.466595,-0.387827,2.555,2.62605
0.474888,-0.387827,2.555,2.62754
0.48318,-0.387827,2.555,2.62905
0.487819,-0.384943,2.536,2.61102
0.49605,-0.384943,2.536,2.61257
0.504281,-0.384943,2.536,2.61415
0.512512,-0.384943,2.536,2.61575
0.520743,-0.384943,2.536,2.61737
0.525012,-0.382059,2.517,2.5994
0.533181,-0.382059,2.517,2.60107
0.541351,-0.382059,2.517,2.60275
0.54952,-0.382059,2.517,2.60446
0.55769,-0.382059,2.517,2.6062
0.565859,-0.382059,2.517,2.60796
0.574029,-0.382059,2.517,2.60975
0.582199,-0.382059,2.517,2.61155
0.590368,-0.382059,2.517,2.61339
0.598538,-0.382059,2.517,2.61524
0.606707,-0.382059,2.517,2.61713
0.614877,-0.382059,2.517,2.61903
0.623046,-0.382059,2.517,2.62096
0.631216,-0.382059,2.517,2.62292
0.639385,-0.382059,2.517,2.62489
0.647555,-0.382059,2.517,2.6269
0.655725,-0.382059,2.517,2.62892
0.668906,-0.384943,2.536,2.65083
0.677137,-0.384943,2.536,2.65292
0.685368,-0.384943,2.536,2.65503
0.693599,-0.384943,2.536,2.65717
0.70183,-0.384943,2.536,2.65933
0.710062,-0.384943,2.536,2.66152
0.718293,-0.384943,2.536,2.66372
0.726524,-0.384943,2.536,2.66595
0.734755,-0.384943,2.536,2.66821
0.742987,-0.384943,2.536,2.67049
0.751218,-0.384943,2.536,2.67279
0.759449,-0.384943,2.536,2.67511
0.76768,-0.384943,2.536,2.67746
0.775912,-0.384943,2.536,2.67984
0.784143,-0.384943,2.536,2.68223
0.792374,-0.384943,2.536,2.68465
0.800605,-0.384943,2.536,2.68709
0.808836,-0.384943,2.536,2.68955
0.823189,-0.387827,2.555,2.71221
0.825299,-0.384943,2.536,2.69455
0.83353,-0.384943,2.536,2.69708
0.841761,-0.384943,2.536,2.69964
0.849993,-0.384943,2.536,2.70221
0.858224,-0.384943,2.536,2.70482
0.866455,-0.384943,2.536,2.70744
0.874686,-0.384943,2.536,2.71008
0.882918,-0.384943,2.536,2.71275
0.884472,-0.382059,2.517,2.6951
0.892642,-0.382059,2.517,2.69779
0.900811,-0.382059,2.517,2.7005
0.90248,-0.379327,2.499,2.68391
0.910591,-0.379327,2.499,2.68665
0.918703,-0.379327,2.499,2.68941
0.920138,-0.376595,2.481,2.6728
0.928191,-0.376595,2.481,2.67558
0.936243,-0.376595,2.481,2.67838
0.944296,-0.376595,2.481,2.68121
0.952349,-0.376595,2.481,2.68406
0.960401,-0.376595,2.481,2.68692
0.961428,-0.373862,2.463,2.6703
0.969422,-0.373862,2.463,2.67319
0.977417,-0.373862,2.463,2.6761
0.985411,-0.373862,2.463,2.67903
0.986145,-0.37113,2.445,2.66238
0.994081,-0.37113,2.445,2.66533
1.00202,-0.37113,2.445,2.6683
1.00995,-0.37113,2.445,2.67129
1.01789,-0.37113,2.445,2.6743
1.02582,-0.37113,2.445,2.67733
1.03376,-0.37113,2.445,2.68038
nan,nan,nan,NaN
nan,nan,nan,NaN
nan,nan,nan,NaN
nan,nan,nan,NaN
1.31842,-0.45583,3.003,3.3112
1.30517,-0.447937,2.951,3.25769
1.31475,-0.447937,2.951,3.26154
1.32433,-0.447937,2.951,3.26541
1.34566,-0.451883,2.977,3.29811
1.35532,-0.451883,2.977,3.30206
1.36498,-0.451883,2.977,3.30604
1.37464,-0.451883,2.977,3.31004
1.38431,-0.451883,2.977,3.31407
1.40614,-0.45583,3.003,3.34709
1.41589,-0.45583,3.003,3.3512
1.42564,-0.45583,3.003,3.35533
1.43538,-0.45583,3.003,3.35948
1.44513,-0.45583,3.003,3.36366
1.45488,-0.45583,3.003,3.36786
1.46463,-0.45583,3.003,3.37208
1.46161,-0.451883,2.977,3.34709
1.47127,-0.451883,2.977,3.35132
1.468,-0.447937,2.951,3.32627
1.47758,-0.447937,2.951,3.33051
1.50026,-0.451883,2.977,3.36415
1.50992,-0.451883,2.977,3.36847
1.53285,-0.45583,3.003,3.40227
1.55647,-0.459928,3.03,3.4373
1.56631,-0.459928,3.03,3.44177
1.59019,-0.464027,3.057,3.47696
1.6289,-0.472375,3.112,3.54415
1.70114,-0.490286,3.23,3.68336
1.71163,-0.490286,3.23,3.68822
1.73811,-0.49484,3.26,3.7274
1.80018,-0.509412,3.356,3.84225
1.81108,-0.509412,3.356,3.84737
1.85834,-0.519582,3.423,3.92942
1.90768,-0.530208,3.493,4.01515
1.9388,-0.535672,3.529,4.06199
1.95025,-0.535672,3.529,4.06746
1.98227,-0.541288,3.566,4.11567
1.99385,-0.541288,3.566,4.12126
2.00542,-0.541288,3.566,4.12687
2.03849,-0.547056,3.604,4.17655
2.05019,-0.547056,3.604,4.18227
2.06189,-0.547056,3.604,4.18801
2.05172,-0.541288,3.566,4.14957
2.06329,-0.541288,3.566,4.1553
2.07487,-0.541288,3.566,4.16106
2.08644,-0.541288,3.566,4.16684
2.05507,-0.530208,3.493,4.08723
2.06641,-0.530208,3.493,4.09295
2.05692,-0.524895,3.458,4.05761
2.02688,-0.514421,3.389,3.98224
2.03788,-0.514421,3.389,3.98785
2.02893,-0.509412,3.356,3.95459
2.00092,-0.499698,3.292,3.88467
2.01161,-0.499698,3.292,3.89018
2.00264,-0.49484,3.26,3.85785
1.99469,-0.490286,3.23,3.8278
2.00517,-0.490286,3.23,3.83328
1.96012,-0.476777,3.141,3.733
1.93456,-0.468125,3.084,3.67052
1.94457,-0.468125,3.084,3.6758
1.92035,-0.459928,3.03,3.61665
1.89642,-0.451883,2.977,3.55853
1.90609,-0.451883,2.977,3.56369
1.88293,-0.444142,2.926,3.50773
1.87626,-0.440347,2.901,3.48282
1.88567,-0.440347,2.901,3.4879
1.87941,-0.436704,2.877,3.46411
1.87299,-0.433061,2.853,3.44024
1.86642,-0.429418,2.829,3.41631
1.8756,-0.429418,2.829,3.42133
1.86946,-0.425927,2.806,3.39852
1.86317,-0.422436,2.783,3.37564
1.8722,-0.422436,2.783,3.38063
1.86637,-0.419096,2.761,3.35888
1.86038,-0.415757,2.739,3.33707
-2.42321,-0.518873,3.493,4.28278
-2.41187,-0.518873,3.493,4.27638
-2.40053,-0.518873,3.493,4.26999
-2.36526,-0.513674,3.458,4.22091
-2.35403,-0.513674,3.458,4.21463
-2.34281,-0.513674,3.458,4.20837
-2.30799,-0.508475,3.423,4.1596
-2.27406,-0.503425,3.389,4.11219
-2.26306,-0.503425,3.389,4.10612
-2.25206,-0.503425,3.389,4.10007
-2.24106,-0.503425,3.389,4.09403
-2.23006,-0.503425,3.389,4.08802
-2.21906,-0.503425,3.389,4.08203
-2.20806,-0.503425,3.389,4.07606
-2.19706,-0.503425,3.389,4.07012
-2.18606,-0.503425,3.389,4.06419
-2.17506,-0.503425,3.389,4.05828
-2.16406,-0.503425,3.389,4.0524
-2.15306,-0.503425,3.389,4.04653
-2.14206,-0.503425,3.389,4.04069
-2.13106,-0.503425,3.389,4.03487
-2.12006,-0.503425,3.389,4.02907
-2.08853,-0.498522,3.356,3.98412
-2.05782,-0.493769,3.324,3.94049
-2.04703,-0.493769,3.324,3.93486
-2.03625,-0.493769,3.324,3.92926
-2.00596,-0.489016,3.292,3.88591
-1.99527,-0.489016,3.292,3.8804
-1.98459,-0.489016,3.292,3.87492
-1.95472,-0.484262,3.26,3.83184
-1.94413,-0.484262,3.26,3.82646
nan,nan,nan,NaN
nan,nan,nan,NaN
nan,nan,nan,NaN
nan,nan,nan,NaN
nan,nan,nan,NaN
nan,nan,nan,NaN
nan,nan,nan,NaN
nan,nan,nan,NaN
nan,nan,nan,NaN
nan,nan,nan,NaN
nan,nan,nan,NaN
nan,nan,nan,NaN
nan,nan,nan,NaN
nan,nan,nan,NaN
nan,nan,nan,NaN
nan,nan,nan,NaN
nan,nan,nan,NaN
nan,nan,nan,NaN
nan,nan,nan,NaN
nan,nan,nan,NaN
nan,nan,nan,NaN
nan,nan,nan,NaN
nan,nan,nan,NaN
nan,nan,nan,NaN
nan,nan,nan,NaN
nan,nan,nan,NaN
nan,nan,nan,NaN
nan,nan,nan,NaN
nan,nan,nan,NaN
nan,nan,nan,NaN
nan,nan,nan,NaN
-1.12388,-0.338983,2.282,2.56623
-1.11647,-0.338983,2.282,2.56299
-1.10906,-0.338983,2.282,2.55978
-1.10938,-0.34136,2.298,2.5745
-1.10192,-0.34136,2.298,2.5713
-1.09446,-0.34136,2.298,2.56811
-1.0941,-0.343588,2.313,2.58168
-1.08659,-0.343588,2.313,2.57851
-1.07908,-0.343588,2.313,2.57535
-1.07158,-0.343588,2.313,2.57222
-1.06407,-0.343588,2.313,2.5691
-1.06387,-0.345965,2.329,2.58375
-1.05631,-0.345965,2.329,2.58064
-1.04875,-0.345965,2.329,2.57756
-1.04119,-0.345965,2.329,2.57449
-1.03363,-0.345965,2.329,2.57145
-1.03312,-0.348342,2.345,2.58606
-1.02551,-0.348342,2.345,2.58303
-1.0179,-0.348342,2.345,2.58002
-1.01029,-0.348342,2.345,2.57702
-1.00268,-0.348342,2.345,2.57405
-0.995066,-0.348342,2.345,2.57109
-0.987455,-0.348342,2.345,2.56816
-0.986529,-0.350719,2.361,2.58274
-0.978866,-0.350719,2.361,2.57983
-0.971203,-0.350719,2.361,2.57693
-0.96354,-0.350719,2.361,2.57405
-0.955876,-0.350719,2.361,2.57119
-0.948213,-0.350719,2.361,2.56835
-0.94055,-0.350719,2.361,2.56553
-0.932887,-0.350719,2.361,2.56273
-0.925224,-0.350719,2.361,2.55995
-0.91756,-0.350719,2.361,2.55719
-0.909897,-0.350719,2.361,2.55445
-0.902234,-0.350719,2.361,2.55173
-0.894571,-0.350719,2.361,2.54904
-0.886907,-0.350719,2.361,2.54636
-0.879244,-0.350719,2.361,2.5437
-0.871581,-0.350719,2.361,2.54106
-0.869772,-0.353095,2.377,2.55564
-0.862057,-0.353095,2.377,2.55303
-0.854342,-0.353095,2.377,2.55043
-0.846627,-0.353095,2.377,2.54786
-0.838912,-0.353095,2.377,2.54531
-0.831197,-0.353095,2.377,2.54277
-0.823481,-0.353095,2.377,2.54026
-0.815766,-0.353095,2.377,2.53777
-0.808051,-0.353095,2.377,2.5353
-0.800336,-0.353095,2.377,2.53285
-0.792621,-0.353095,2.377,2.53043
-0.784906,-0.353095,2.377,2.52802
-0.777191,-0.353095,2.377,2.52563
-0.769475,-0.353095,2.377,2.52327
-0.76176,-0.353095,2.377,2.52093
-0.754045,-0.353095,2.377,2.51861
-0.74633,-0.353095,2.377,2.51631
-0.738615,-0.353095,2.377,2.51403
-0.736127,-0.355621,2.394,2.52974
-0.728357,-0.355621,2.394,2.52749
-0.720586,-0.355621,2.394,2.52526
-0.712816,-0.355621,2.394,2.52306
-0.710052,-0.358146,2.411,2.53877
-0.702227,-0.358146,2.411,2.53659
-0.694401,-0.358146,2.411,2.53444
-0.686576,-0.358146,2.411,2.53231
-0.67875,-0.358146,2.411,2.5302
-0.675655,-0.360671,2.428,2.54593
-0.667775,-0.360671,2.428,2.54385
-0.659894,-0.360671,2.428,2.5418
-0.656578,-0.363196,2.445,2.55754
-0.648643,-0.363196,2.445,2.55552
-0.645424,-0.36587,2.463,2.57231
-0.637429,-0.36587,2.463,2.57032
-0.629435,-0.36587,2.463,2.56835
-0.625982,-0.368544,2.481,2.58516
-0.61793,-0.368544,2.481,2.58322
-0.609877,-0.368544,2.481,2.58131
-0.601824,-0.368544,2.481,2.57941
-0.593771,-0.368544,2.481,2.57755
-0.589968,-0.371218,2.499,2.59439
-0.581857,-0.371218,2.499,2.59256
