nan,nan,nan,NaN
nan,nan,nan,NaN
nan,nan,nan,NaN
nan,nan,nan,NaN
nan,nan,nan,NaN
nan,nan,nan,NaN
nan,nan,nan,NaN
nan,nan,nan,NaN
nan,nan,nan,NaN
nan,nan,nan,NaN
nan,nan,nan,NaN
nan,nan,nan,NaN
nan,nan,nan,NaN
nan,nan,nan,NaN
nan,nan,nan,NaN
nan,nan,nan,NaN
nan,nan,nan,NaN
nan,nan,nan,NaN
nan,nan,nan,NaN
nan,nan,nan,NaN
nan,nan,nan,NaN
nan,nan,nan,NaN
nan,nan,nan,NaN
nan,nan,nan,NaN
nan,nan,nan,NaN
nan,nan,nan,NaN
nan,nan,nan,NaN
nan,nan,nan,NaN
-1.19622,-0.17279,2.445,2.72742
-1.18828,-0.17279,2.445,2.72395
-1.18035,-0.17279,2.445,2.7205
-1.16426,-0.171588,2.428,2.69817
-1.15638,-0.171588,2.428,2.69478
-1.1485,-0.171588,2.428,2.69141
-1.14062,-0.171588,2.428,2.68805
-1.13274,-0.171588,2.428,2.68472
-1.12485,-0.171588,2.428,2.6814
-1.10915,-0.170387,2.411,2.65936
-1.09356,-0.169185,2.394,2.63737
-1.08579,-0.169185,2.394,2.63416
-1.07802,-0.169185,2.394,2.63097
-1.07025,-0.169185,2.394,2.62779
-1.06248,-0.169185,2.394,2.62464
-1.04722,-0.167984,2.377,2.60289
-1.03951,-0.167984,2.377,2.59979
-1.03179,-0.167984,2.377,2.59672
-1.02408,-0.167984,2.377,2.59366
-1.01636,-0.167984,2.377,2.59062
-1.00865,-0.167984,2.377,2.58761
-0.994193,-0.166853,2.361,2.56721
-0.986529,-0.166853,2.361,2.56425
-0.978866,-0.166853,2.361,2.56132
-0.971203,-0.166853,2.361,2.5584
-0.96354,-0.166853,2.361,2.5555
-0.955876,-0.166853,2.361,2.55262
-0.954639,-0.167984,2.377,2.56704
-0.94055,-0.166853,2.361,2.54692
-0.932887,-0.166853,2.361,2.5441
-0.925224,-0.166853,2.361,2.5413
-0.91756,-0.166853,2.361,2.53852
-0.916063,-0.167984,2.377,2.55294
-0.908348,-0.167984,2.377,2.55019
-0.900633,-0.167984,2.377,2.54745
-0.892918,-0.167984,2.377,2.54473
-0.885203,-0.167984,2.377,2.54203
-0.877488,-0.167984,2.377,2.53936
-0.869772,-0.167984,2.377,2.5367
-0.862057,-0.167984,2.377,2.53407
-0.854342,-0.167984,2.377,2.53145
-0.846627,-0.167984,2.377,2.52886
-0.838912,-0.167984,2.377,2.52629
-0.831197,-0.167984,2.377,2.52373
-0.823481,-0.167984,2.377,2.5212
-0.815766,-0.167984,2.377,2.51869
-0.808051,-0.167984,2.377,2.51621
-0.800336,-0.167984,2.377,2.51374
-0.792621,-0.167984,2.377,2.51129
-0.790519,-0.169185,2.394,2.52681
-0.782749,-0.169185,2.394,2.52439
-0.769475,-0.167984,2.377,2.50408
-0.76176,-0.167984,2.377,2.50172
-0.759438,-0.169185,2.394,2.51726
-0.751668,-0.169185,2.394,2.51493
-0.743897,-0.169185,2.394,2.51262
-0.741354,-0.170387,2.411,2.52815
-0.733529,-0.170387,2.411,2.52587
-0.725703,-0.170387,2.411,2.52361
-0.717878,-0.170387,2.411,2.52137
-0.710052,-0.170387,2.411,2.51915
-0.702227,-0.170387,2.411,2.51696
-0.694401,-0.170387,2.411,2.51479
-0.686576,-0.170387,2.411,2.51264
-0.67875,-0.170387,2.411,2.51051
-0.670925,-0.170387,2.411,2.5084
-0.663099,-0.170387,2.411,2.50632
-0.655274,-0.170387,2.411,2.50426
-0.647448,-0.170387,2.411,2.50223
-0.639623,-0.170387,2.411,2.50021
-0.636252,-0.171588,2.428,2.51584
-0.628371,-0.171588,2.428,2.51386
-0.620491,-0.171588,2.428,2.5119
-0.61261,-0.171588,2.428,2.50996
-0.600495,-0.170387,2.411,2.49049
-0.59267,-0.170387,2.411,2.48862
-0.584844,-0.170387,2.411,2.48676
-0.577019,-0.170387,2.411,2.48494
-0.569193,-0.170387,2.411,2.48313
-0.565326,-0.171588,2.428,2.49884
-0.557445,-0.171588,2.428,2.49707
-0.549564,-0.171588,2.428,2.49533
-0.541684,-0.171588,2.428,2.4936
-0.533803,-0.171588,2.428,2.4919
-0.525922,-0.171588,2.428,2.49023
-0.518042,-0.171588,2.428,2.48857
-0.510161,-0.171588,2.428,2.48694
-0.50228,-0.171588,2.428,2.48534
-0.497861,-0.17279,2.445,2.50115
-0.489925,-0.17279,2.445,2.49958
-0.481989,-0.17279,2.445,2.49804
-0.474054,-0.17279,2.445,2.49652
-0.466118,-0.17279,2.445,2.49502
-0.461555,-0.174062,2.463,2.51191
-0.453561,-0.174062,2.463,2.51045
-0.445566,-0.174062,2.463,2.50902
-0.437572,-0.174062,2.463,2.50762
-0.429578,-0.174062,2.463,2.50623
-0.421584,-0.174062,2.463,2.50488
-0.413589,-0.174062,2.463,2.50354
-0.408559,-0.175334,2.481,2.52052
-0.400506,-0.175334,2.481,2.51923
-0.392454,-0.175334,2.481,2.51796
-0.384401,-0.175334,2.481,2.51672
-0.376348,-0.175334,2.481,2.5155
-0.368296,-0.175334,2.481,2.51431
-0.360243,-0.175334,2.481,2.51314
-0.35219,-0.175334,2.481,2.512
-0.346634,-0.176606,2.499,2.5291
-0.338523,-0.176606,2.499,2.528
-0.330412,-0.176606,2.499,2.52693
-0.322301,-0.176606,2.499,2.52588
-0.31419,-0.176606,2.499,2.52486
-0.308283,-0.177878,2.517,2.54204
-0.300114,-0.177878,2.517,2.54106
-0.291944,-0.177878,2.517,2.54011
-0.283775,-0.177878,2.517,2.53918
-0.275605,-0.177878,2.517,2.53828
-0.267435,-0.177878,2.517,2.53741
-0.261223,-0.179221,2.536,2.55571
-0.252992,-0.179221,2.536,2.55488
-0.244761,-0.179221,2.536,2.55408
-0.236529,-0.179221,2.536,2.5533
-0.228298,-0.179221,2.536,2.55255
-0.220067,-0.179221,2.536,2.55183
-0.211836,-0.179221,2.536,2.55114
-0.203604,-0.179221,2.536,2.55046
-0.195373,-0.179221,2.536,2.54982
-0.187142,-0.179221,2.536,2.5492
-0.178911,-0.179221,2.536,2.54861
-0.170679,-0.179221,2.536,2.54805
-0.163665,-0.180563,2.555,2.5666
-0.155372,-0.180563,2.555,2.56608
-0.14708,-0.180563,2.555,2.56559
-0.138787,-0.180563,2.555,2.56513
-0.130494,-0.180563,2.555,2.56469
-0.122201,-0.180563,2.555,2.56429
-0.113908,-0.180563,2.555,2.5639
-0.105615,-0.180563,2.555,2.56355
-0.0973222,-0.180563,2.555,2.56322
-0.0890293,-0.180563,2.555,2.56292
-0.080136,-0.179221,2.536,2.54359
-0.0719048,-0.179221,2.536,2.54334
-0.0636736,-0.179221,2.536,2.54312
-0.0554423,-0.179221,2.536,2.54293
-0.0472111,-0.179221,2.536,2.54276
-0.0389799,-0.179221,2.536,2.54262
-0.0305183,-0.177878,2.517,2.52346
-0.0223487,-0.177878,2.517,2.52338
-0.0142862,-0.179221,2.536,2.54237
-0.00600962,-0.177878,2.517,2.52328
0.00215994,-0.177878,2.517,2.52328
0.0103295,-0.177878,2.517,2.5233
0.0184991,-0.177878,2.517,2.52335
0.0268699,-0.179221,2.536,2.54247
0.0351011,-0.179221,2.536,2.54257
0.0433324,-0.179221,2.536,2.54269
0.0515636,-0.179221,2.536,2.54285
0.0597948,-0.179221,2.536,2.54303
0.0680261,-0.179221,2.536,2.54323
0.075686,-0.177878,2.517,2.52441
0.0838555,-0.177878,2.517,2.52467
0.0920251,-0.177878,2.517,2.52496
0.100195,-0.177878,2.517,2.52527
0.108364,-0.177878,2.517,2.5256
0.116534,-0.177878,2.517,2.52597
0.123811,-0.176606,2.499,2.50829
0.131923,-0.176606,2.499,2.5087
0.140034,-0.176606,2.499,2.50914
0.148145,-0.176606,2.499,2.50961
0.155131,-0.175334,2.481,2.49202
0.163183,-0.175334,2.481,2.49254
0.171236,-0.175334,2.481,2.49308
0.179289,-0.175334,2.481,2.49364
0.187341,-0.175334,2.481,2.49423
0.195394,-0.175334,2.481,2.49485
0.203447,-0.175334,2.481,2.49549
0.2115,-0.175334,2.481,2.49616
0.219552,-0.175334,2.481,2.49686
0.227605,-0.175334,2.481,2.49758
0.235658,-0.175334,2.481,2.49833
0.24371,-0.175334,2.481,2.4991
0.251763,-0.175334,2.481,2.4999
0.259816,-0.175334,2.481,2.50072
0.265925,-0.174062,2.463,2.48342
0.273919,-0.174062,2.463,2.48429
0.281914,-0.174062,2.463,2.48518
0.289908,-0.174062,2.463,2.4861
0.297902,-0.174062,2.463,2.48705
0.305896,-0.174062,2.463,2.48802
0.313891,-0.174062,2.463,2.48901
0.321885,-0.174062,2.463,2.49004
0.329879,-0.174062,2.463,2.49108
0.337874,-0.174062,2.463,2.49215
0.345868,-0.174062,2.463,2.49325
0.353862,-0.174062,2.463,2.49437
0.361856,-0.174062,2.463,2.49552
0.369851,-0.174062,2.463,2.49669
0.377845,-0.174062,2.463,2.49789
0.385839,-0.174062,2.463,2.49911
0.393834,-0.174062,2.463,2.50035
0.404765,-0.175334,2.481,2.51991
0.412817,-0.175334,2.481,2.52121
0.42087,-0.175334,2.481,2.52255
0.428923,-0.175334,2.481,2.5239
0.440146,-0.176606,2.499,2.5436
0.448257,-0.176606,2.499,2.54502
0.456368,-0.176606,2.499,2.54646
0.464479,-0.176606,2.499,2.54793
0.47259,-0.176606,2.499,2.54942
0.480701,-0.176606,2.499,2.55093
0.488812,-0.176606,2.499,2.55247
0.496924,-0.176606,2.499,2.55404
0.505035,-0.176606,2.499,2.55563
0.513146,-0.176606,2.499,2.55725
0.521257,-0.176606,2.499,2.55889
0.529368,-0.176606,2.499,2.56055
0.537479,-0.176606,2.499,2.56224
0.54559,-0.176606,2.499,2.56395
0.553702,-0.176606,2.499,2.56569
0.557766,-0.175334,2.481,2.54896
0.565819,-0.175334,2.481,2.55074
0.573871,-0.175334,2.481,2.55253
0.581924,-0.175334,2.481,2.55436
0.589977,-0.175334,2.481,2.5562
0.59803,-0.175334,2.481,2.55807
0.606082,-0.175334,2.481,2.55997
0.614135,-0.175334,2.481,2.56189
0.617674,-0.174062,2.463,2.54523
0.625668,-0.174062,2.463,2.54718
0.633662,-0.174062,2.463,2.54916
0.641657,-0.174062,2.463,2.55115
0.649651,-0.174062,2.463,2.55318
0.657645,-0.174062,2.463,2.55522
0.665639,-0.174062,2.463,2.55729
0.673634,-0.174062,2.463,2.55938
0.681628,-0.174062,2.463,2.5615
0.694662,-0.175334,2.481,2.58237
0.702715,-0.175334,2.481,2.58455
0.710768,-0.175334,2.481,2.58675
0.71882,-0.175334,2.481,2.58898
0.726873,-0.175334,2.481,2.59123
0.734926,-0.175334,2.481,2.5935
0.748369,-0.176606,2.499,2.61462
0.75648,-0.176606,2.499,2.61695
0.764591,-0.176606,2.499,2.61931
0.772702,-0.176606,2.499,2.62169
0.780813,-0.176606,2.499,2.62409
0.788924,-0.176606,2.499,2.62652
0.797036,-0.176606,2.499,2.62896
0.805147,-0.176606,2.499,2.63144
0.813258,-0.176606,2.499,2.63393
0.821369,-0.176606,2.499,2.63644
0.82948,-0.176606,2.499,2.63898
0.837591,-0.176606,2.499,2.64154
0.845702,-0.176606,2.499,2.64413
0.853814,-0.176606,2.499,2.64673
0.861925,-0.176606,2.499,2.64936
0.870036,-0.176606,2.499,2.65201
0.878147,-0.176606,2.499,2.65468
0.886258,-0.176606,2.499,2.65738
0.894369,-0.176606,2.499,2.66009
0.89598,-0.175334,2.481,2.64365
0.904033,-0.175334,2.481,2.64639
0.912085,-0.175334,2.481,2.64915
0.913462,-0.174062,2.463,2.63269
0.921457,-0.174062,2.463,2.63548
0.929451,-0.174062,2.463,2.63828
0.937445,-0.174062,2.463,2.64111
0.93853,-0.17279,2.445,2.62464
0.946466,-0.17279,2.445,2.62749
0.947766,-0.171588,2.428,2.61207
0.955646,-0.171588,2.428,2.61494
0.963527,-0.171588,2.428,2.61783
0.971408,-0.171588,2.428,2.62074
0.972432,-0.170387,2.411,2.6053
0.980257,-0.170387,2.411,2.60823
0.988083,-0.170387,2.411,2.61118
0.988886,-0.169185,2.394,2.59572
0.996657,-0.169185,2.394,2.59869
1.00443,-0.169185,2.394,2.60168
nan,nan,nan,NaN
nan,nan,nan,NaN
nan,nan,nan,NaN
nan,nan,nan,NaN
nan,nan,nan,NaN
nan,nan,nan,NaN
nan,nan,nan,NaN
nan,nan,nan,NaN
nan,nan,nan,NaN
nan,nan,nan,NaN
nan,nan,nan,NaN
nan,nan,nan,NaN
nan,nan,nan,NaN
nan,nan,nan,NaN
1.74234,-0.262965,3.721,4.11713
1.75442,-0.262965,3.721,4.12226
1.7665,-0.262965,3.721,4.12741
1.77858,-0.262965,3.721,4.13259
1.79065,-0.262965,3.721,4.13781
1.80273,-0.262965,3.721,4.14305
1.81481,-0.262965,3.721,4.14832
1.82689,-0.262965,3.721,4.15361
1.83896,-0.262965,3.721,4.15894
1.85104,-0.262965,3.721,4.16429
1.86312,-0.262965,3.721,4.16968
nan,nan,nan,NaN
nan,nan,nan,NaN
nan,nan,nan,NaN
nan,nan,nan,NaN
nan,nan,nan,NaN
nan,nan,nan,NaN
nan,nan,nan,NaN
nan,nan,nan,NaN
nan,nan,nan,NaN
nan,nan,nan,NaN
2.04049,-0.268831,3.804,4.32508
2.05284,-0.268831,3.804,4.33092
2.06519,-0.268831,3.804,4.33678
2.07753,-0.268831,3.804,4.34268
2.08988,-0.268831,3.804,4.3486
2.07902,-0.265863,3.762,4.30646
2.06844,-0.262965,3.721,4.26537
2.08051,-0.262965,3.721,4.27124
2.0701,-0.260138,3.681,4.23116
2.05998,-0.257382,3.642,4.19213
2.07181,-0.257382,3.642,4.19795
2.06189,-0.254697,3.604,4.15994
2.05172,-0.252011,3.566,4.12182
2.04189,-0.249396,3.529,4.08477
2.05334,-0.249396,3.529,4.09051
2.06479,-0.249396,3.529,4.09627
2.03448,-0.244379,3.458,4.01953
2.0457,-0.244379,3.458,4.02522
2.03611,-0.241905,3.423,3.99013
2.00714,-0.23717,3.356,3.9176
2.01804,-0.23717,3.356,3.9232
2.00958,-0.234909,3.324,3.89135
2.00092,-0.232647,3.292,3.85941
2.01161,-0.232647,3.292,3.86497
1.98421,-0.228266,3.23,3.79764
1.95764,-0.224026,3.17,3.73248
1.96793,-0.224026,3.17,3.73789
1.94202,-0.219927,3.112,3.67483
1.91762,-0.21604,3.057,3.61513
1.92754,-0.21604,3.057,3.62041
1.92035,-0.214132,3.03,3.59368
1.89642,-0.210386,2.977,3.53599
1.87343,-0.206782,2.926,3.48052
1.88293,-0.206782,2.926,3.48564
1.87626,-0.205015,2.901,3.46095
1.85447,-0.201623,2.853,3.40871
1.86373,-0.201623,2.853,3.41376
1.85724,-0.199927,2.829,3.39007
1.83607,-0.196676,2.783,3.3399
1.84511,-0.196676,2.783,3.34487
1.83948,-0.195121,2.761,3.32338
1.81899,-0.192012,2.717,3.27531
1.8278,-0.192012,2.717,3.28022
1.80823,-0.189044,2.675,3.23436
1.80265,-0.18756,2.654,3.21379
-2.02986,-0.197288,2.926,3.56661
-2.02036,-0.197288,2.926,3.56122
-1.99369,-0.195602,2.901,3.52546
-1.98427,-0.195602,2.901,3.52014
-1.95852,-0.193984,2.877,3.48576
-1.94918,-0.193984,2.877,3.48053
-1.93984,-0.193984,2.877,3.4753
-1.9144,-0.192366,2.853,3.44115
-1.90514,-0.192366,2.853,3.43601
-1.89588,-0.192366,2.853,3.43088
-1.88662,-0.192366,2.853,3.42578
-1.87736,-0.192366,2.853,3.42069
-1.8681,-0.192366,2.853,3.41561
-1.85884,-0.192366,2.853,3.41056
-1.86514,-0.193984,2.877,3.43417
-1.87128,-0.195602,2.901,3.45771
-1.86186,-0.195602,2.901,3.45262
-1.86841,-0.197288,2.926,3.47726
-1.85891,-0.197288,2.926,3.47217
-1.84942,-0.197288,2.926,3.46709
-1.83992,-0.197288,2.926,3.46204
-1.83042,-0.197288,2.926,3.457
-1.82093,-0.197288,2.926,3.45198
-1.81143,-0.197288,2.926,3.44698
-1.78654,-0.195602,2.901,3.41259
-1.77712,-0.195602,2.901,3.40767
-1.7677,-0.195602,2.901,3.40277
-1.74374,-0.193984,2.877,3.36978
-1.7344,-0.193984,2.877,3.36495
-1.72507,-0.193984,2.877,3.36015
-1.70142,-0.192366,2.853,3.32738
-1.69216,-0.192366,2.853,3.32265
-1.6829,-0.192366,2.853,3.31794
-1.67364,-0.192366,2.853,3.31326
nan,nan,nan,NaN
nan,nan,nan,NaN
nan,nan,nan,NaN
nan,nan,nan,NaN
nan,nan,nan,NaN
nan,nan,nan,NaN
nan,nan,nan,NaN
nan,nan,nan,NaN
nan,nan,nan,NaN
nan,nan,nan,NaN
nan,nan,nan,NaN
nan,nan,nan,NaN
nan,nan,nan,NaN
nan,nan,nan,NaN
nan,nan,nan,NaN
nan,nan,nan,NaN
nan,nan,nan,NaN
nan,nan,nan,NaN
nan,nan,nan,NaN
nan,nan,nan,NaN
nan,nan,nan,NaN
nan,nan,nan,NaN
nan,nan,nan,NaN
nan,nan,nan,NaN
nan,nan,nan,NaN
nan,nan,nan,NaN
nan,nan,nan,NaN
nan,nan,nan,NaN
nan,nan,nan,NaN
nan,nan,nan,NaN
nan,nan,nan,NaN
-1.18904,-0.16607,2.463,2.74003
-1.18104,-0.16607,2.463,2.73657
-1.17305,-0.16607,2.463,2.73313
-1.15654,-0.164856,2.445,2.70976
-1.14062,-0.16371,2.428,2.68756
-1.13274,-0.16371,2.428,2.68423
-1.12485,-0.16371,2.428,2.68091
-1.10915,-0.162563,2.411,2.65887
-1.10133,-0.162563,2.411,2.65561
-1.0935,-0.162563,2.411,2.65238
-1.07802,-0.161417,2.394,2.63048
-1.07025,-0.161417,2.394,2.6273
-1.06248,-0.161417,2.394,2.62415
-1.04722,-0.160271,2.377,2.6024
-1.03951,-0.160271,2.377,2.59931
-1.03179,-0.160271,2.377,2.59623
-1.02408,-0.160271,2.377,2.59317
-1.01636,-0.160271,2.377,2.59014
-1.00865,-0.160271,2.377,2.58712
-1.00093,-0.160271,2.377,2.58412
-0.993215,-0.160271,2.377,2.58114
-0.9855,-0.160271,2.377,2.57818
-0.977785,-0.160271,2.377,2.57524
-0.970069,-0.160271,2.377,2.57232
-0.962354,-0.160271,2.377,2.56942
-0.954639,-0.160271,2.377,2.56654
-0.94055,-0.159192,2.361,2.54643
-0.932887,-0.159192,2.361,2.54361
-0.925224,-0.159192,2.361,2.54081
-0.91756,-0.159192,2.361,2.53803
-0.916063,-0.160271,2.377,2.55245
-0.908348,-0.160271,2.377,2.54969
-0.900633,-0.160271,2.377,2.54695
-0.892918,-0.160271,2.377,2.54423
-0.885203,-0.160271,2.377,2.54153
-0.877488,-0.160271,2.377,2.53886
-0.869772,-0.160271,2.377,2.5362
-0.862057,-0.160271,2.377,2.53357
-0.854342,-0.160271,2.377,2.53095
-0.846627,-0.160271,2.377,2.52836
-0.838912,-0.160271,2.377,2.52578
-0.831197,-0.160271,2.377,2.52323
-0.823481,-0.160271,2.377,2.5207
-0.815766,-0.160271,2.377,2.51819
-0.808051,-0.160271,2.377,2.5157
-0.800336,-0.160271,2.377,2.51324
-0.792621,-0.160271,2.377,2.51079
-0.790519,-0.161417,2.394,2.5263
-0.782749,-0.161417,2.394,2.52388
-0.769475,-0.160271,2.377,2.50358
-0.76176,-0.160271,2.377,2.50122
-0.759438,-0.161417,2.394,2.51675
-0.751668,-0.161417,2.394,2.51442
-0.743897,-0.161417,2.394,2.51211
-0.741354,-0.162563,2.411,2.52764
-0.733529,-0.162563,2.411,2.52535
-0.725703,-0.162563,2.411,2.52309
-0.717878,-0.162563,2.411,2.52085
-0.710052,-0.162563,2.411,2.51864
-0.702227,-0.162563,2.411,2.51644
-0.694401,-0.162563,2.411,2.51427
-0.686576,-0.162563,2.411,2.51212
-0.67875,-0.162563,2.411,2.50999
-0.670925,-0.162563,2.411,2.50789
-0.663099,-0.162563,2.411,2.5058
-0.655274,-0.162563,2.411,2.50374
-0.647448,-0.162563,2.411,2.50171
-0.639623,-0.162563,2.411,2.49969
-0.636252,-0.16371,2.428,2.51531
-0.628371,-0.16371,2.428,2.51333
-0.620491,-0.16371,2.428,2.51137
-0.61261,-0.16371,2.428,2.50944
-0.600495,-0.162563,2.411,2.48997
-0.59267,-0.162563,2.411,2.48809
-0.584844,-0.162563,2.411,2.48624
-0.577019,-0.162563,2.411,2.48441
-0.569193,-0.162563,2.411,2.48261
-0.565326,-0.16371,2.428,2.49832
-0.557445,-0.16371,2.428,2.49654
-0.549564,-0.16371,2.428,2.4948
-0.541684,-0.16371,2.428,2.49307
-0.533803,-0.16371,2.428,2.49137
-0.525922,-0.16371,2.428,2.48969
-0.518042,-0.16371,2.428,2.48804
-0.510161,-0.16371,2.428,2.48641
-0.50228,-0.16371,2.428,2.48481
-0.497861,-0.164856,2.445,2.50061
-0.489925,-0.164856,2.445,2.49905
-0.481989,-0.164856,2.445,2.4975
-0.474054,-0.164856,2.445,2.49598
-0.466118,-0.164856,2.445,2.49449
-0.458182,-0.164856,2.445,2.49302
-0.450246,-0.164856,2.445,2.49157
-0.44231,-0.164856,2.445,2.49015
-0.437572,-0.16607,2.463,2.50707
-0.429578,-0.16607,2.463,2.50569
-0.421584,-0.16607,2.463,2.50433
-0.413589,-0.16607,2.463,2.503
-0.405595,-0.16607,2.463,2.50169
-0.397601,-0.16607,2.463,2.50041
-0.392454,-0.167283,2.481,2.51741
-0.384401,-0.167283,2.481,2.51617
-0.376348,-0.167283,2.481,2.51495
-0.368296,-0.167283,2.481,2.51376
-0.360243,-0.167283,2.481,2.51259
-0.35219,-0.167283,2.481,2.51145
-0.346634,-0.168497,2.499,2.52855
-0.338523,-0.168497,2.499,2.52745
-0.330412,-0.168497,2.499,2.52637
-0.322301,-0.168497,2.499,2.52533
-0.31419,-0.168497,2.499,2.5243
-0.308283,-0.169711,2.517,2.54148
-0.300114,-0.169711,2.517,2.5405
-0.291944,-0.169711,2.517,2.53955
-0.283775,-0.169711,2.517,2.53863
-0.275605,-0.169711,2.517,2.53773
-0.267435,-0.169711,2.517,2.53685
-0.259266,-0.169711,2.517,2.536
-0.251096,-0.169711,2.517,2.53518
-0.242927,-0.169711,2.517,2.53438
-0.234757,-0.169711,2.517,2.53361
-0.226588,-0.169711,2.517,2.53287
-0.218418,-0.169711,2.517,2.53215
-0.210249,-0.169711,2.517,2.53146
-0.202079,-0.169711,2.517,2.5308
-0.193909,-0.169711,2.517,2.53016
-0.18574,-0.169711,2.517,2.52954
-0.17757,-0.169711,2.517,2.52896
-0.169401,-0.169711,2.517,2.5284
-0.161231,-0.169711,2.517,2.52786
-0.154217,-0.170992,2.536,2.54643
-0.145986,-0.170992,2.536,2.54595
-0.137755,-0.170992,2.536,2.54549
-0.129523,-0.170992,2.536,2.54506
-0.121292,-0.170992,2.536,2.54465
-0.113061,-0.170992,2.536,2.54427
-0.10483,-0.170992,2.536,2.54392
-0.0965985,-0.170992,2.536,2.54359
-0.0883672,-0.170992,2.536,2.54329
-0.080136,-0.170992,2.536,2.54302
-0.0719048,-0.170992,2.536,2.54277
-0.0636736,-0.170992,2.536,2.54256
-0.0554423,-0.170992,2.536,2.54236
-0.0472111,-0.170992,2.536,2.5422
-0.0389799,-0.170992,2.536,2.54206
-0.0305183,-0.169711,2.517,2.5229
-0.0223487,-0.169711,2.517,2.52281
-0.0141792,-0.169711,2.517,2.52275
-0.00600962,-0.169711,2.517,2.52272
0.00215994,-0.169711,2.517,2.52272
0.0103295,-0.169711,2.517,2.52274
0.0184991,-0.169711,2.517,2.52278
0.0266686,-0.169711,2.517,2.52286
0.0348382,-0.169711,2.517,2.52296
0.0430077,-0.169711,2.517,2.52308
0.0511773,-0.169711,2.517,2.52323
0.0593468,-0.169711,2.517,2.52341
0.0675164,-0.169711,2.517,2.52362
0.075686,-0.169711,2.517,2.52385
0.0838555,-0.169711,2.517,2.52411
0.0920251,-0.169711,2.517,2.52439
0.100195,-0.169711,2.517,2.5247
0.108364,-0.169711,2.517,2.52504
0.116534,-0.169711,2.517,2.52541
0.123811,-0.168497,2.499,2.50773
0.131923,-0.168497,2.499,2.50815
0.139025,-0.167283,2.481,2.49052
0.147078,-0.167283,2.481,2.49098
0.155131,-0.167283,2.481,2.49147
0.163183,-0.167283,2.481,2.49198
0.171236,-0.167283,2.481,2.49252
0.179289,-0.167283,2.481,2.49309
0.187341,-0.167283,2.481,2.49368
0.195394,-0.167283,2.481,2.4943
0.203447,-0.167283,2.481,2.49494
0.2115,-0.167283,2.481,2.49561
0.219552,-0.167283,2.481,2.49631
0.227605,-0.167283,2.481,2.49703
0.235658,-0.167283,2.481,2.49778
0.24371,-0.167283,2.481,2.49855
0.251763,-0.167283,2.481,2.49935
0.259816,-0.167283,2.481,2.50017
0.265925,-0.16607,2.463,2.48287
0.273919,-0.16607,2.463,2.48374
0.281914,-0.16607,2.463,2.48464
0.289908,-0.16607,2.463,2.48556
0.297902,-0.16607,2.463,2.4865
0.305896,-0.16607,2.463,2.48747
0.313891,-0.16607,2.463,2.48847
0.321885,-0.16607,2.463,2.48949
0.329879,-0.16607,2.463,2.49054
0.337874,-0.16607,2.463,2.49161
0.345868,-0.16607,2.463,2.4927
0.353862,-0.16607,2.463,2.49383
0.361856,-0.16607,2.463,2.49497
0.369851,-0.16607,2.463,2.49614
0.377845,-0.16607,2.463,2.49734
0.385839,-0.16607,2.463,2.49856
0.393834,-0.16607,2.463,2.49981
0.404765,-0.167283,2.481,2.51936
0.412817,-0.167283,2.481,2.52067
0.42087,-0.167283,2.481,2.522
0.428923,-0.167283,2.481,2.52336
0.440146,-0.168497,2.499,2.54305
0.448257,-0.168497,2.499,2.54447
0.456368,-0.168497,2.499,2.54591
0.464479,-0.168497,2.499,2.54738
0.47259,-0.168497,2.499,2.54887
0.480701,-0.168497,2.499,2.55039
0.488812,-0.168497,2.499,2.55193
0.496924,-0.168497,2.499,2.55349
0.505035,-0.168497,2.499,2.55508
0.513146,-0.168497,2.499,2.5567
0.521257,-0.168497,2.499,2.55834
0.529368,-0.168497,2.499,2.56
0.533608,-0.167283,2.481,2.54324
0.541661,-0.167283,2.481,2.54494
0.549713,-0.167283,2.481,2.54667
0.557766,-0.167283,2.481,2.54842
0.565819,-0.167283,2.481,2.5502
0.573871,-0.167283,2.481,2.55199
0.581924,-0.167283,2.481,2.55382
0.589977,-0.167283,2.481,2.55566
0.59803,-0.167283,2.481,2.55753
0.606082,-0.167283,2.481,2.55943
0.614135,-0.167283,2.481,2.56135
0.617674,-0.16607,2.463,2.54469
0.625668,-0.16607,2.463,2.54665
0.633662,-0.16607,2.463,2.54862
0.641657,-0.16607,2.463,2.55062
0.649651,-0.16607,2.463,2.55264
0.657645,-0.16607,2.463,2.55469
0.670504,-0.167283,2.481,2.57545
0.678557,-0.167283,2.481,2.57755
0.686609,-0.167283,2.481,2.57969
0.694662,-0.167283,2.481,2.58184
0.702715,-0.167283,2.481,2.58402
0.710768,-0.167283,2.481,2.58622
0.71882,-0.167283,2.481,2.58845
0.732147,-0.168497,2.499,2.60949
0.740258,-0.168497,2.499,2.61178
0.748369,-0.168497,2.499,2.61409
0.75648,-0.168497,2.499,2.61642
0.764591,-0.168497,2.499,2.61878
0.772702,-0.168497,2.499,2.62116
0.780813,-0.168497,2.499,2.62356
0.788924,-0.168497,2.499,2.62598
0.797036,-0.168497,2.499,2.62843
0.805147,-0.168497,2.499,2.6309
0.813258,-0.168497,2.499,2.6334
0.827285,-0.169711,2.517,2.6549
0.82948,-0.168497,2.499,2.63845
0.837591,-0.168497,2.499,2.64101
0.845702,-0.168497,2.499,2.6436
0.853814,-0.168497,2.499,2.6462
0.861925,-0.168497,2.499,2.64883
0.870036,-0.168497,2.499,2.65148
0.878147,-0.168497,2.499,2.65415
0.886258,-0.168497,2.499,2.65685
0.894369,-0.168497,2.499,2.65957
0.89598,-0.167283,2.481,2.64313
0.904033,-0.167283,2.481,2.64587
0.912085,-0.167283,2.481,2.64863
0.913462,-0.16607,2.463,2.63218
0.921457,-0.16607,2.463,2.63496
0.929451,-0.16607,2.463,2.63777
0.937445,-0.16607,2.463,2.6406
0.93853,-0.164856,2.445,2.62413
0.946466,-0.164856,2.445,2.62698
0.947766,-0.16371,2.428,2.61156
0.955646,-0.16371,2.428,2.61443
0.963527,-0.16371,2.428,2.61732
0.971408,-0.16371,2.428,2.62023
nan,nan,nan,NaN
nan,nan,nan,NaN
0.988083,-0.162563,2.411,2.61068
0.995908,-0.162563,2.411,2.61365
1.00373,-0.162563,2.411,2.61664
nan,nan,nan,NaN
nan,nan,nan,NaN
nan,nan,nan,NaN
nan,nan,nan,NaN
nan,nan,nan,NaN
nan,nan,nan,NaN
nan,nan,nan,NaN
nan,nan,nan,NaN
nan,nan,nan,NaN
nan,nan,nan,NaN
nan,nan,nan,NaN
nan,nan,nan,NaN
nan,nan,nan,NaN
1.66416,-0.243002,3.604,3.9771
1.67586,-0.243002,3.604,3.98201
1.68756,-0.243002,3.604,3.98694
1.71717,-0.245564,3.642,4.034
1.729,-0.245564,3.642,4.03905
1.74082,-0.245564,3.642,4.04412
1.75264,-0.245564,3.642,4.04922
1.76446,-0.245564,3.642,4.05435
1.77628,-0.245564,3.642,4.05951
1.76944,-0.243002,3.604,4.02229
1.78114,-0.243002,3.604,4.02745
1.79284,-0.243002,3.604,4.03263
1.80454,-0.243002,3.604,4.03785
1.77844,-0.237945,3.529,3.95895
1.78989,-0.237945,3.529,3.96411
1.80135,-0.237945,3.529,3.9693
nan,nan,nan,NaN
nan,nan,nan,NaN
nan,nan,nan,NaN
nan,nan,nan,NaN
nan,nan,nan,NaN
nan,nan,nan,NaN
nan,nan,nan,NaN
2.01796,-0.253656,3.762,4.27658
2.03017,-0.253656,3.762,4.28236
2.04238,-0.253656,3.762,4.28816
2.0546,-0.253656,3.762,4.29399
2.06681,-0.253656,3.762,4.29985
2.07902,-0.253656,3.762,4.30573
2.06844,-0.250891,3.721,4.26465
2.08051,-0.250891,3.721,4.27052
2.04816,-0.245564,3.642,4.18562
2.03849,-0.243002,3.604,4.14769
2.05019,-0.243002,3.604,4.15345
2.04015,-0.24044,3.566,4.11538
2.03043,-0.237945,3.529,4.07837
2.04189,-0.237945,3.529,4.08409
2.05334,-0.237945,3.529,4.08983
2.04373,-0.235518,3.493,4.05381
2.03448,-0.233158,3.458,4.01886
2.0457,-0.233158,3.458,4.02455
2.03611,-0.230798,3.423,3.98948
2.00714,-0.226281,3.356,3.91696
2.01804,-0.226281,3.356,3.92255
2.00958,-0.224123,3.324,3.89071
2.00092,-0.221965,3.292,3.85879
2.01161,-0.221965,3.292,3.86434
1.98421,-0.217785,3.23,3.79703
1.95764,-0.21374,3.17,3.73188
1.96793,-0.21374,3.17,3.73729
1.94202,-0.209829,3.112,3.67424
1.91762,-0.20612,3.057,3.61455
1.92754,-0.20612,3.057,3.61983
1.92035,-0.2043,3.03,3.5931
1.89642,-0.200726,2.977,3.53543
1.87343,-0.197288,2.926,3.47996
1.88293,-0.197288,2.926,3.48509
1.87626,-0.195602,2.901,3.46041
1.83887,-0.190747,2.829,3.37951
1.84806,-0.190747,2.829,3.38451
1.84214,-0.189197,2.806,3.36198
1.83607,-0.187646,2.783,3.33938
1.84511,-0.187646,2.783,3.34436
1.82482,-0.184679,2.739,3.29639
1.81899,-0.183196,2.717,3.27481
1.8278,-0.183196,2.717,3.27971
1.80823,-0.180364,2.675,3.23386
1.78839,-0.177532,2.633,3.18787
-2.04721,-0.189398,2.951,3.59657
-2.02036,-0.187793,2.926,3.5607
-2.01087,-0.187793,2.926,3.55532
-1.98427,-0.186189,2.901,3.51963
-1.95852,-0.184648,2.877,3.48526
-1.94918,-0.184648,2.877,3.48002
-1.93984,-0.184648,2.877,3.4748
-1.9144,-0.183108,2.853,3.44065
-1.90514,-0.183108,2.853,3.4355
-1.87993,-0.181568,2.829,3.40152
-1.87075,-0.181568,2.829,3.39645
-1.86157,-0.181568,2.829,3.39141
-1.85238,-0.181568,2.829,3.38637
-1.8432,-0.181568,2.829,3.38136
-1.83402,-0.181568,2.829,3.37636
-1.84032,-0.183108,2.853,3.39999
-1.83106,-0.183108,2.853,3.39498
-1.8218,-0.183108,2.853,3.39
-1.82778,-0.184648,2.877,3.41351
-1.81845,-0.184648,2.877,3.40851
-1.80911,-0.184648,2.877,3.40354
-1.79977,-0.184648,2.877,3.39859
-1.79043,-0.184648,2.877,3.39365
-1.78109,-0.184648,2.877,3.38873
-1.77176,-0.184648,2.877,3.38384
-1.76242,-0.184648,2.877,3.37896
-1.73846,-0.183108,2.853,3.34595
-1.7292,-0.183108,2.853,3.34115
-1.71994,-0.183108,2.853,3.33636
-1.71068,-0.183108,2.853,3.3316
-1.6871,-0.181568,2.829,3.29887
-1.67792,-0.181568,2.829,3.29418
-1.66874,-0.181568,2.829,3.28951
-1.65956,-0.181568,2.829,3.28486
nan,nan,nan,NaN
nan,nan,nan,NaN
nan,nan,nan,NaN
nan,nan,nan,NaN
nan,nan,nan,NaN
nan,nan,nan,NaN
nan,nan,nan,NaN
nan,nan,nan,NaN
nan,nan,nan,NaN
nan,nan,nan,NaN
nan,nan,nan,NaN
nan,nan,nan,NaN
nan,nan,nan,NaN
nan,nan,nan,NaN
nan,nan,nan,NaN
nan,nan,nan,NaN
nan,nan,nan,NaN
nan,nan,nan,NaN
nan,nan,nan,NaN
nan,nan,nan,NaN
nan,nan,nan,NaN
nan,nan,nan,NaN
nan,nan,nan,NaN
nan,nan,nan,NaN
nan,nan,nan,NaN
nan,nan,nan,NaN
nan,nan,nan,NaN
nan,nan,nan,NaN
nan,nan,nan,NaN
nan,nan,nan,NaN
nan,nan,nan,NaN
-1.19772,-0.159233,2.481,2.75958
-1.18104,-0.158078,2.463,2.73609
-1.17305,-0.158078,2.463,2.73265
-1.16505,-0.158078,2.463,2.72923
-1.1486,-0.156922,2.445,2.70591
-1.14067,-0.156922,2.445,2.70255
-1.12485,-0.155831,2.428,2.68044
-1.10915,-0.15474,2.411,2.6584
-1.10133,-0.15474,2.411,2.65514
-1.0935,-0.15474,2.411,2.65191
-1.08568,-0.15474,2.411,2.64869
-1.07025,-0.153649,2.394,2.62684
-1.06248,-0.153649,2.394,2.62368
-1.04722,-0.152558,2.377,2.60194
-1.03951,-0.152558,2.377,2.59884
-1.03179,-0.152558,2.377,2.59576
-1.02408,-0.152558,2.377,2.59271
-1.01636,-0.152558,2.377,2.58967
-1.00865,-0.152558,2.377,2.58665
-1.00093,-0.152558,2.377,2.58365
-0.993215,-0.152558,2.377,2.58067
-0.9855,-0.152558,2.377,2.57771
-0.977785,-0.152558,2.377,2.57477
-0.970069,-0.152558,2.377,2.57186
-0.962354,-0.152558,2.377,2.56895
-0.954639,-0.152558,2.377,2.56607
-0.94055,-0.151531,2.361,2.54596
-0.932887,-0.151531,2.361,2.54314
-0.925224,-0.151531,2.361,2.54034
-0.91756,-0.151531,2.361,2.53756
-0.916063,-0.152558,2.377,2.55197
-0.908348,-0.152558,2.377,2.54922
-0.900633,-0.152558,2.377,2.54648
-0.892918,-0.152558,2.377,2.54376
-0.885203,-0.152558,2.377,2.54106
-0.877488,-0.152558,2.377,2.53838
-0.869772,-0.152558,2.377,2.53573
-0.862057,-0.152558,2.377,2.53309
-0.854342,-0.152558,2.377,2.53047
-0.846627,-0.152558,2.377,2.52788
-0.838912,-0.152558,2.377,2.52531
-0.831197,-0.152558,2.377,2.52275
-0.823481,-0.152558,2.377,2.52022
-0.815766,-0.152558,2.377,2.51771
-0.808051,-0.152558,2.377,2.51522
-0.800336,-0.152558,2.377,2.51276
-0.792621,-0.152558,2.377,2.51031
-0.784906,-0.152558,2.377,2.50788
-0.777191,-0.152558,2.377,2.50548
-0.769475,-0.152558,2.377,2.5031
-0.76176,-0.152558,2.377,2.50074
-0.759438,-0.153649,2.394,2.51627
-0.751668,-0.153649,2.394,2.51393
-0.743897,-0.153649,2.394,2.51162
-0.736127,-0.153649,2.394,2.50933
-0.728357,-0.153649,2.394,2.50706
-0.720586,-0.153649,2.394,2.50481
-0.712816,-0.153649,2.394,2.50259
-0.705046,-0.153649,2.394,2.50039
-0.697275,-0.153649,2.394,2.49821
-0.694401,-0.15474,2.411,2.51377
-0.686576,-0.15474,2.411,2.51162
-0.67875,-0.15474,2.411,2.5095
-0.670925,-0.15474,2.411,2.50739
-0.663099,-0.15474,2.411,2.50531
-0.655274,-0.15474,2.411,2.50325
-0.647448,-0.15474,2.411,2.50121
-0.639623,-0.15474,2.411,2.4992
-0.631797,-0.15474,2.411,2.49721
-0.623972,-0.15474,2.411,2.49524
-0.616146,-0.15474,2.411,2.49329
-0.608321,-0.15474,2.411,2.49137
-0.600495,-0.15474,2.411,2.48947
-0.59267,-0.15474,2.411,2.48759
-0.584844,-0.15474,2.411,2.48574
-0.577019,-0.15474,2.411,2.48391
-0.569193,-0.15474,2.411,2.48211
-0.561368,-0.15474,2.411,2.48032
-0.553542,-0.15474,2.411,2.47856
-0.545717,-0.15474,2.411,2.47683
-0.537891,-0.15474,2.411,2.47511
-0.533803,-0.155831,2.428,2.49087
-0.525922,-0.155831,2.428,2.48919
-0.518042,-0.155831,2.428,2.48754
-0.510161,-0.155831,2.428,2.48591
-0.50228,-0.155831,2.428,2.4843
-0.497861,-0.156922,2.445,2.5001
-0.489925,-0.156922,2.445,2.49853
-0.481989,-0.156922,2.445,2.49699
-0.474054,-0.156922,2.445,2.49547
-0.466118,-0.156922,2.445,2.49398
-0.458182,-0.156922,2.445,2.49251
-0.450246,-0.156922,2.445,2.49106
-0.44231,-0.156922,2.445,2.48964
-0.434374,-0.156922,2.445,2.48824
-0.426438,-0.156922,2.445,2.48687
-0.421584,-0.158078,2.463,2.50382
-0.413589,-0.158078,2.463,2.50248
-0.405595,-0.158078,2.463,2.50117
-0.397601,-0.158078,2.463,2.49989
-0.392454,-0.159233,2.481,2.51689
-0.384401,-0.159233,2.481,2.51565
-0.376348,-0.159233,2.481,2.51443
-0.368296,-0.159233,2.481,2.51324
-0.360243,-0.159233,2.481,2.51207
-0.35219,-0.159233,2.481,2.51093
-0.344137,-0.159233,2.481,2.50981
-0.338523,-0.160388,2.499,2.52692
-0.330412,-0.160388,2.499,2.52585
-0.322301,-0.160388,2.499,2.5248
-0.31419,-0.160388,2.499,2.52378
-0.306079,-0.160388,2.499,2.52278
-0.297967,-0.160388,2.499,2.52181
-0.289856,-0.160388,2.499,2.52086
-0.281745,-0.160388,2.499,2.51994
-0.273634,-0.160388,2.499,2.51905
-0.265523,-0.160388,2.499,2.51818
-0.257412,-0.160388,2.499,2.51734
-0.249301,-0.160388,2.499,2.51652
-0.242927,-0.161543,2.517,2.53385
-0.234757,-0.161543,2.517,2.53308
-0.226588,-0.161543,2.517,2.53234
-0.218418,-0.161543,2.517,2.53162
-0.210249,-0.161543,2.517,2.53093
-0.202079,-0.161543,2.517,2.53026
-0.193909,-0.161543,2.517,2.52962
-0.18574,-0.161543,2.517,2.52901
-0.17757,-0.161543,2.517,2.52842
-0.169401,-0.161543,2.517,2.52786
-0.161231,-0.161543,2.517,2.52733
-0.153062,-0.161543,2.517,2.52682
-0.145986,-0.162763,2.536,2.54541
-0.137755,-0.162763,2.536,2.54495
-0.129523,-0.162763,2.536,2.54452
-0.121292,-0.162763,2.536,2.54411
-0.113061,-0.162763,2.536,2.54373
-0.10483,-0.162763,2.536,2.54338
-0.0965985,-0.162763,2.536,2.54305
-0.0883672,-0.162763,2.536,2.54275
-0.080136,-0.162763,2.536,2.54248
-0.0719048,-0.162763,2.536,2.54223
-0.0636736,-0.162763,2.536,2.54202
-0.0554423,-0.162763,2.536,2.54182
-0.0472111,-0.162763,2.536,2.54166
-0.0389799,-0.162763,2.536,2.54152
-0.0305183,-0.161543,2.517,2.52236
-0.0223487,-0.161543,2.517,2.52228
-0.0141792,-0.161543,2.517,2.52222
-0.00600962,-0.161543,2.517,2.52219
0.00215994,-0.161543,2.517,2.52218
0.0103295,-0.161543,2.517,2.5222
0.0183668,-0.160388,2.499,2.50421
0.0264779,-0.160388,2.499,2.50428
0.034589,-0.160388,2.499,2.50438
0.0427002,-0.160388,2.499,2.50451
0.0508113,-0.160388,2.499,2.50466
0.0589224,-0.160388,2.499,2.50483
0.0670336,-0.160388,2.499,2.50504
0.0751447,-0.160388,2.499,2.50527
0.0826561,-0.159233,2.481,2.48748
0.0907089,-0.159233,2.481,2.48776
0.0987616,-0.159233,2.481,2.48807
0.106814,-0.159233,2.481,2.4884
0.116534,-0.161543,2.517,2.52487
0.123811,-0.160388,2.499,2.5072
0.131923,-0.160388,2.499,2.50761
0.139025,-0.159233,2.481,2.48999
0.147078,-0.159233,2.481,2.49045
0.155131,-0.159233,2.481,2.49094
0.163183,-0.159233,2.481,2.49145
0.171236,-0.159233,2.481,2.492
0.179289,-0.159233,2.481,2.49256
0.187341,-0.159233,2.481,2.49315
0.195394,-0.159233,2.481,2.49377
0.203447,-0.159233,2.481,2.49442
0.2115,-0.159233,2.481,2.49509
0.219552,-0.159233,2.481,2.49578
0.227605,-0.159233,2.481,2.4965
0.235658,-0.159233,2.481,2.49725
0.24371,-0.159233,2.481,2.49802
0.251763,-0.159233,2.481,2.49882
0.259816,-0.159233,2.481,2.49964
0.265925,-0.158078,2.463,2.48235
0.273919,-0.158078,2.463,2.48322
0.281914,-0.158078,2.463,2.48412
0.289908,-0.158078,2.463,2.48504
0.297902,-0.158078,2.463,2.48598
0.305896,-0.158078,2.463,2.48695
0.313891,-0.158078,2.463,2.48795
0.321885,-0.158078,2.463,2.48897
0.329879,-0.158078,2.463,2.49002
0.337874,-0.158078,2.463,2.49109
0.345868,-0.158078,2.463,2.49218
0.353862,-0.158078,2.463,2.49331
0.361856,-0.158078,2.463,2.49445
0.369851,-0.158078,2.463,2.49563
0.377845,-0.158078,2.463,2.49682
0.385839,-0.158078,2.463,2.49805
0.393834,-0.158078,2.463,2.49929
0.404765,-0.159233,2.481,2.51884
0.412817,-0.159233,2.481,2.52015
0.42087,-0.159233,2.481,2.52148
0.428923,-0.159233,2.481,2.52283
0.440146,-0.160388,2.499,2.54253
0.448257,-0.160388,2.499,2.54395
0.456368,-0.160388,2.499,2.54539
0.464479,-0.160388,2.499,2.54685
0.47259,-0.160388,2.499,2.54835
0.480701,-0.160388,2.499,2.54986
0.488812,-0.160388,2.499,2.5514
0.496924,-0.160388,2.499,2.55297
0.505035,-0.160388,2.499,2.55456
0.513146,-0.160388,2.499,2.55618
0.521257,-0.160388,2.499,2.55782
0.529368,-0.160388,2.499,2.55948
0.533608,-0.159233,2.481,2.54273
0.541661,-0.159233,2.481,2.54443
0.549713,-0.159233,2.481,2.54615
0.557766,-0.159233,2.481,2.54791
0.565819,-0.159233,2.481,2.54968
0.573871,-0.159233,2.481,2.55148
0.581924,-0.159233,2.481,2.5533
0.589977,-0.159233,2.481,2.55515
0.59803,-0.159233,2.481,2.55702
0.606082,-0.159233,2.481,2.55892
0.614135,-0.159233,2.481,2.56084
0.617674,-0.158078,2.463,2.54419
0.625668,-0.158078,2.463,2.54614
0.633662,-0.158078,2.463,2.54811
0.641657,-0.158078,2.463,2.55011
0.649651,-0.158078,2.463,2.55214
0.657645,-0.158078,2.463,2.55418
0.670504,-0.159233,2.481,2.57494
0.678557,-0.159233,2.481,2.57704
0.686609,-0.159233,2.481,2.57918
0.694662,-0.159233,2.481,2.58133
0.702715,-0.159233,2.481,2.58351
0.710768,-0.159233,2.481,2.58571
0.71882,-0.159233,2.481,2.58794
0.732147,-0.160388,2.499,2.60898
0.740258,-0.160388,2.499,2.61127
0.748369,-0.160388,2.499,2.61358
0.75648,-0.160388,2.499,2.61591
0.764591,-0.160388,2.499,2.61827
0.772702,-0.160388,2.499,2.62065
0.780813,-0.160388,2.499,2.62305
0.788924,-0.160388,2.499,2.62548
0.797036,-0.160388,2.499,2.62793
0.805147,-0.160388,2.499,2.6304
0.813258,-0.160388,2.499,2.63289
0.827285,-0.161543,2.517,2.65439
0.82948,-0.160388,2.499,2.63795
0.837591,-0.160388,2.499,2.64051
0.845702,-0.160388,2.499,2.64309
0.853814,-0.160388,2.499,2.6457
0.861925,-0.160388,2.499,2.64833
0.870036,-0.160388,2.499,2.65098
0.878147,-0.160388,2.499,2.65365
0.886258,-0.160388,2.499,2.65635
0.894369,-0.160388,2.499,2.65906
0.89598,-0.159233,2.481,2.64263
0.904033,-0.159233,2.481,2.64537
0.912085,-0.159233,2.481,2.64813
0.913462,-0.158078,2.463,2.63169
0.921457,-0.158078,2.463,2.63447
0.929451,-0.158078,2.463,2.63728
0.937445,-0.158078,2.463,2.64011
0.93853,-0.156922,2.445,2.62364
0.946466,-0.156922,2.445,2.62649
0.947766,-0.155831,2.428,2.61108
0.955646,-0.155831,2.428,2.61395
0.963527,-0.155831,2.428,2.61684
0.971408,-0.155831,2.428,2.61975
0.979289,-0.155831,2.428,2.62268
0.987169,-0.155831,2.428,2.62564
0.988083,-0.15474,2.411,2.61021
0.995908,-0.15474,2.411,2.61318
1.00373,-0.15474,2.411,2.61617
nan,nan,nan,NaN
nan,nan,nan,NaN
nan,nan,nan,NaN
nan,nan,nan,NaN
nan,nan,nan,NaN
nan,nan,nan,NaN
nan,nan,nan,NaN
nan,nan,nan,NaN
nan,nan,nan,NaN
nan,nan,nan,NaN
nan,nan,nan,NaN
nan,nan,nan,NaN
nan,nan,nan,NaN
1.66416,-0.231308,3.604,3.9764
1.67586,-0.231308,3.604,3.98131
1.68756,-0.231308,3.604,3.98625
1.71717,-0.233747,3.642,4.0333
1.729,-0.233747,3.642,4.03834
1.74082,-0.233747,3.642,4.04342
1.75264,-0.233747,3.642,4.04852
1.76446,-0.233747,3.642,4.05365
1.72117,-0.226494,3.529,3.93288
1.73262,-0.226494,3.529,3.93791
1.78114,-0.231308,3.604,4.02676
1.79284,-0.231308,3.604,4.03195
1.80454,-0.231308,3.604,4.03716
1.77844,-0.226494,3.529,3.95828
1.78989,-0.226494,3.529,3.96344
1.80135,-0.226494,3.529,3.96863
nan,nan,nan,NaN
nan,nan,nan,NaN
nan,nan,nan,NaN
nan,nan,nan,NaN
nan,nan,nan,NaN
nan,nan,nan,NaN
1.98389,-0.238817,3.721,4.22359
1.99597,-0.238817,3.721,4.22928
2.00805,-0.238817,3.721,4.23499
2.02013,-0.238817,3.721,4.24073
2.0322,-0.238817,3.721,4.2465
2.06681,-0.241448,3.762,4.29914
2.05636,-0.238817,3.721,4.25811
2.06844,-0.238817,3.721,4.26395
2.08051,-0.238817,3.721,4.26983
2.04816,-0.233747,3.642,4.18495
2.03849,-0.231308,3.604,4.14702
2.05019,-0.231308,3.604,4.15278
2.04015,-0.228869,3.566,4.11472
2.03043,-0.226494,3.529,4.07772
2.04189,-0.226494,3.529,4.08344
2.05334,-0.226494,3.529,4.08917
2.04373,-0.224184,3.493,4.05316
2.03448,-0.221937,3.458,4.01822
2.0457,-0.221937,3.458,4.02392
2.01588,-0.217509,3.389,3.94923
2.00714,-0.215391,3.356,3.91635
2.01804,-0.215391,3.356,3.92194
2.00958,-0.213337,3.324,3.89011
1.98147,-0.20923,3.26,3.82068
1.99205,-0.20923,3.26,3.82618
1.96516,-0.205315,3.199,3.76
1.95764,-0.203453,3.17,3.7313
1.96793,-0.203453,3.17,3.73671
1.94202,-0.199731,3.112,3.67367
1.91762,-0.196201,3.057,3.614
1.92754,-0.196201,3.057,3.61928
1.90324,-0.192735,3.003,3.56054
1.89642,-0.191066,2.977,3.53489
1.87343,-0.187793,2.926,3.47944
1.88293,-0.187793,2.926,3.48456
1.86074,-0.184648,2.877,3.43126
1.83887,-0.181568,2.829,3.379
1.84806,-0.181568,2.829,3.38401
1.84214,-0.180092,2.806,3.36148
1.82156,-0.177203,2.761,3.31249
1.83052,-0.177203,2.761,3.31743
1.82482,-0.175791,2.739,3.29591
1.80493,-0.173032,2.696,3.24902
1.81368,-0.173032,2.696,3.25389
1.80823,-0.171684,2.675,3.23339
1.78839,-0.168988,2.633,3.18741
-2.04721,-0.179822,2.951,3.59608
-2.02036,-0.178299,2.926,3.56022
-2.01087,-0.178299,2.926,3.55484
-1.98427,-0.176775,2.901,3.51915
-1.95852,-0.175313,2.877,3.48477
-1.94918,-0.175313,2.877,3.47953
-1.93984,-0.175313,2.877,3.47431
-1.9144,-0.173851,2.853,3.44017
-1.90514,-0.173851,2.853,3.43502
-1.87993,-0.172388,2.829,3.40104
-1.87075,-0.172388,2.829,3.39598
-1.86157,-0.172388,2.829,3.39093
-1.85238,-0.172388,2.829,3.38589
-1.8432,-0.172388,2.829,3.38088
-1.83402,-0.172388,2.829,3.37588
-1.84032,-0.173851,2.853,3.3995
-1.83106,-0.173851,2.853,3.3945
-1.8218,-0.173851,2.853,3.38951
-1.82778,-0.175313,2.877,3.41301
-1.81845,-0.175313,2.877,3.40802
-1.80911,-0.175313,2.877,3.40305
-1.79977,-0.175313,2.877,3.39809
-1.79043,-0.175313,2.877,3.39316
-1.78109,-0.175313,2.877,3.38824
-1.77176,-0.175313,2.877,3.38334
-1.76242,-0.175313,2.877,3.37846
-1.73846,-0.173851,2.853,3.34545
-1.7292,-0.173851,2.853,3.34065
-1.71994,-0.173851,2.853,3.33587
-1.71068,-0.173851,2.853,3.3311
-1.6871,-0.172388,2.829,3.29837
-1.67792,-0.172388,2.829,3.29369
-1.66874,-0.172388,2.829,3.28902
-1.65956,-0.172388,2.829,3.28437
nan,nan,nan,NaN
nan,nan,nan,NaN
nan,nan,nan,NaN
nan,nan,nan,NaN
nan,nan,nan,NaN
nan,nan,nan,NaN
nan,nan,nan,NaN
nan,nan,nan,NaN
nan,nan,nan,NaN
nan,nan,nan,NaN
nan,nan,nan,NaN
nan,nan,nan,NaN
nan,nan,nan,NaN
nan,nan,nan,NaN
nan,nan,nan,NaN
nan,nan,nan,NaN
nan,nan,nan,NaN
nan,nan,nan,NaN
nan,nan,nan,NaN
nan,nan,nan,NaN
nan,nan,nan,NaN
nan,nan,nan,NaN
nan,nan,nan,NaN
nan,nan,nan,NaN
nan,nan,nan,NaN
nan,nan,nan,NaN
nan,nan,nan,NaN
nan,nan,nan,NaN
nan,nan,nan,NaN
-1.23144,-0.153376,2.517,2.80629
-1.22327,-0.153376,2.517,2.80272
-1.19772,-0.151182,2.481,2.75912
-1.18104,-0.150085,2.463,2.73564
-1.17305,-0.150085,2.463,2.7322
-1.16505,-0.150085,2.463,2.72878
-1.1486,-0.148989,2.445,2.70546
-1.14067,-0.148989,2.445,2.7021
-1.12485,-0.147953,2.428,2.67999
-1.10915,-0.146917,2.411,2.65796
-1.10133,-0.146917,2.411,2.6547
-1.0935,-0.146917,2.411,2.65146
-1.08568,-0.146917,2.411,2.64824
-1.07025,-0.145881,2.394,2.6264
-1.06248,-0.145881,2.394,2.62324
-1.04722,-0.144845,2.377,2.6015
-1.03951,-0.144845,2.377,2.5984
-1.03179,-0.144845,2.377,2.59532
-1.02408,-0.144845,2.377,2.59227
-1.01636,-0.144845,2.377,2.58923
-1.00865,-0.144845,2.377,2.58621
-1.00093,-0.144845,2.377,2.58321
-0.993215,-0.144845,2.377,2.58023
-0.9855,-0.144845,2.377,2.57727
-0.977785,-0.144845,2.377,2.57433
-0.970069,-0.144845,2.377,2.57141
-0.962354,-0.144845,2.377,2.56851
-0.954639,-0.144845,2.377,2.56563
-0.94055,-0.14387,2.361,2.54552
-0.932887,-0.14387,2.361,2.5427
-0.925224,-0.14387,2.361,2.53989
-0.91756,-0.14387,2.361,2.53711
-0.916063,-0.144845,2.377,2.55153
-0.908348,-0.144845,2.377,2.54877
-0.900633,-0.144845,2.377,2.54603
-0.892918,-0.144845,2.377,2.54331
-0.879244,-0.14387,2.361,2.52351
-0.871581,-0.14387,2.361,2.52085
-0.863918,-0.14387,2.361,2.51821
-0.856255,-0.14387,2.361,2.51559
-0.848591,-0.14387,2.361,2.51299
-0.840928,-0.14387,2.361,2.51041
-0.833265,-0.14387,2.361,2.50786
-0.825602,-0.14387,2.361,2.50532
-0.823481,-0.144845,2.377,2.51977
-0.815766,-0.144845,2.377,2.51726
-0.808051,-0.144845,2.377,2.51477
-0.800336,-0.144845,2.377,2.5123
-0.792621,-0.144845,2.377,2.50985
-0.784906,-0.144845,2.377,2.50743
-0.777191,-0.144845,2.377,2.50502
-0.769475,-0.144845,2.377,2.50264
-0.76176,-0.144845,2.377,2.50028
-0.754045,-0.144845,2.377,2.49794
-0.74633,-0.144845,2.377,2.49562
-0.743897,-0.145881,2.394,2.51116
-0.736127,-0.145881,2.394,2.50886
-0.728357,-0.145881,2.394,2.5066
-0.720586,-0.145881,2.394,2.50435
-0.712816,-0.145881,2.394,2.50212
-0.705046,-0.145881,2.394,2.49992
-0.697275,-0.145881,2.394,2.49774
-0.689505,-0.145881,2.394,2.49558
-0.681735,-0.145881,2.394,2.49345
-0.673964,-0.145881,2.394,2.49133
-0.666194,-0.145881,2.394,2.48924
-0.658424,-0.145881,2.394,2.48717
-0.650653,-0.145881,2.394,2.48513
-0.642883,-0.145881,2.394,2.48311
-0.635113,-0.145881,2.394,2.48111
-0.627342,-0.145881,2.394,2.47913
-0.619572,-0.145881,2.394,2.47717
-0.616146,-0.146917,2.411,2.49282
-0.608321,-0.146917,2.411,2.4909
-0.600495,-0.146917,2.411,2.489
-0.59267,-0.146917,2.411,2.48712
-0.58072,-0.145881,2.394,2.46774
-0.57295,-0.145881,2.394,2.46593
-0.56518,-0.145881,2.394,2.46413
-0.561368,-0.146917,2.411,2.47985
-0.553542,-0.146917,2.411,2.47809
-0.545717,-0.146917,2.411,2.47635
-0.537891,-0.146917,2.411,2.47464
-0.530066,-0.146917,2.411,2.47295
-0.52224,-0.146917,2.411,2.47128
-0.518042,-0.147953,2.428,2.48705
-0.510161,-0.147953,2.428,2.48543
-0.50228,-0.147953,2.428,2.48382
-0.497861,-0.148989,2.445,2.49962
-0.489925,-0.148989,2.445,2.49805
-0.481989,-0.148989,2.445,2.49651
-0.474054,-0.148989,2.445,2.49499
-0.466118,-0.148989,2.445,2.49349
-0.458182,-0.148989,2.445,2.49202
-0.450246,-0.148989,2.445,2.49057
-0.44231,-0.148989,2.445,2.48915
-0.434374,-0.148989,2.445,2.48775
-0.426438,-0.148989,2.445,2.48638
-0.421584,-0.150085,2.463,2.50332
-0.413589,-0.150085,2.463,2.50199
-0.405595,-0.150085,2.463,2.50068
-0.397601,-0.150085,2.463,2.4994
-0.389606,-0.150085,2.463,2.49814
-0.384401,-0.151182,2.481,2.51515
-0.376348,-0.151182,2.481,2.51393
-0.368296,-0.151182,2.481,2.51274
-0.360243,-0.151182,2.481,2.51157
-0.35219,-0.151182,2.481,2.51043
-0.344137,-0.151182,2.481,2.50931
-0.338523,-0.152279,2.499,2.52642
-0.330412,-0.152279,2.499,2.52534
-0.322301,-0.152279,2.499,2.5243
-0.31419,-0.152279,2.499,2.52327
-0.306079,-0.152279,2.499,2.52228
-0.297967,-0.152279,2.499,2.5213
-0.289856,-0.152279,2.499,2.52036
-0.281745,-0.152279,2.499,2.51944
-0.273634,-0.152279,2.499,2.51854
-0.265523,-0.152279,2.499,2.51768
-0.257412,-0.152279,2.499,2.51683
-0.249301,-0.152279,2.499,2.51602
-0.242927,-0.153376,2.517,2.53334
-0.234757,-0.153376,2.517,2.53257
-0.226588,-0.153376,2.517,2.53183
-0.218418,-0.153376,2.517,2.53111
-0.210249,-0.153376,2.517,2.53042
-0.202079,-0.153376,2.517,2.52975
-0.193909,-0.153376,2.517,2.52911
-0.18574,-0.153376,2.517,2.5285
-0.17757,-0.153376,2.517,2.52791
-0.169401,-0.153376,2.517,2.52735
-0.161231,-0.153376,2.517,2.52682
-0.153062,-0.153376,2.517,2.52631
-0.145986,-0.154534,2.536,2.54489
-0.137755,-0.154534,2.536,2.54444
-0.129523,-0.154534,2.536,2.544
-0.121292,-0.154534,2.536,2.5436
-0.113061,-0.154534,2.536,2.54322
-0.10483,-0.154534,2.536,2.54287
-0.0965985,-0.154534,2.536,2.54254
-0.0883672,-0.154534,2.536,2.54224
-0.080136,-0.154534,2.536,2.54197
-0.0719048,-0.154534,2.536,2.54172
-0.0636736,-0.154534,2.536,2.5415
-0.0554423,-0.154534,2.536,2.54131
-0.0472111,-0.154534,2.536,2.54114
-0.0389799,-0.154534,2.536,2.541
-0.0305183,-0.153376,2.517,2.52185
-0.0223487,-0.153376,2.517,2.52177
-0.0141792,-0.153376,2.517,2.52171
-0.00600962,-0.153376,2.517,2.52168
0.00215994,-0.153376,2.517,2.52167
0.0103295,-0.153376,2.517,2.52169
0.0183668,-0.152279,2.499,2.5037
0.0264779,-0.152279,2.499,2.50378
0.034589,-0.152279,2.499,2.50387
0.0427002,-0.152279,2.499,2.504
0.0508113,-0.152279,2.499,2.50415
0.0589224,-0.152279,2.499,2.50433
0.0670336,-0.152279,2.499,2.50453
0.0751447,-0.152279,2.499,2.50476
0.0826561,-0.151182,2.481,2.48698
0.0907089,-0.151182,2.481,2.48726
0.0987616,-0.151182,2.481,2.48756
0.106814,-0.151182,2.481,2.4879
0.114867,-0.151182,2.481,2.48825
0.12292,-0.151182,2.481,2.48864
0.130972,-0.151182,2.481,2.48905
0.139025,-0.151182,2.481,2.48949
0.147078,-0.151182,2.481,2.48995
0.155131,-0.151182,2.481,2.49044
0.163183,-0.151182,2.481,2.49095
0.171236,-0.151182,2.481,2.49149
0.179289,-0.151182,2.481,2.49206
0.187341,-0.151182,2.481,2.49265
0.195394,-0.151182,2.481,2.49327
0.203447,-0.151182,2.481,2.49391
0.2115,-0.151182,2.481,2.49458
0.219552,-0.151182,2.481,2.49528
0.227605,-0.151182,2.481,2.496
0.235658,-0.151182,2.481,2.49675
0.24371,-0.151182,2.481,2.49752
0.251763,-0.151182,2.481,2.49832
0.259816,-0.151182,2.481,2.49914
0.265925,-0.150085,2.463,2.48186
0.273919,-0.150085,2.463,2.48273
0.281914,-0.150085,2.463,2.48362
0.289908,-0.150085,2.463,2.48454
0.297902,-0.150085,2.463,2.48549
0.305896,-0.150085,2.463,2.48646
0.313891,-0.150085,2.463,2.48745
0.321885,-0.150085,2.463,2.48847
0.329879,-0.150085,2.463,2.48952
0.337874,-0.150085,2.463,2.49059
0.345868,-0.150085,2.463,2.49169
0.353862,-0.150085,2.463,2.49281
0.361856,-0.150085,2.463,2.49396
0.369851,-0.150085,2.463,2.49513
0.377845,-0.150085,2.463,2.49633
0.385839,-0.150085,2.463,2.49755
0.393834,-0.150085,2.463,2.4988
0.404765,-0.151182,2.481,2.51834
0.412817,-0.151182,2.481,2.51965
0.42087,-0.151182,2.481,2.52098
0.428923,-0.151182,2.481,2.52234
0.440146,-0.152279,2.499,2.54203
0.448257,-0.152279,2.499,2.54345
0.456368,-0.152279,2.499,2.54489
0.464479,-0.152279,2.499,2.54636
0.47259,-0.152279,2.499,2.54785
0.480701,-0.152279,2.499,2.54937
0.488812,-0.152279,2.499,2.55091
0.496924,-0.152279,2.499,2.55247
0.505035,-0.152279,2.499,2.55407
0.513146,-0.152279,2.499,2.55568
0.521257,-0.152279,2.499,2.55732
0.525555,-0.151182,2.481,2.54056
0.533608,-0.151182,2.481,2.54223
0.541661,-0.151182,2.481,2.54394
0.549713,-0.151182,2.481,2.54566
0.557766,-0.151182,2.481,2.54741
0.565819,-0.151182,2.481,2.54919
0.573871,-0.151182,2.481,2.55099
0.581924,-0.151182,2.481,2.55281
0.589977,-0.151182,2.481,2.55466
0.59803,-0.151182,2.481,2.55653
0.606082,-0.151182,2.481,2.55843
0.614135,-0.151182,2.481,2.56035
0.622188,-0.151182,2.481,2.56229
0.625668,-0.150085,2.463,2.54565
0.633662,-0.150085,2.463,2.54763
0.641657,-0.150085,2.463,2.54963
0.649651,-0.150085,2.463,2.55165
0.662451,-0.151182,2.481,2.57236
0.670504,-0.151182,2.481,2.57445
0.678557,-0.151182,2.481,2.57656
0.686609,-0.151182,2.481,2.57869
0.694662,-0.151182,2.481,2.58085
0.702715,-0.151182,2.481,2.58303
0.710768,-0.151182,2.481,2.58523
0.724035,-0.152279,2.499,2.60623
0.732147,-0.152279,2.499,2.60849
0.740258,-0.152279,2.499,2.61078
0.748369,-0.152279,2.499,2.61309
0.75648,-0.152279,2.499,2.61543
0.764591,-0.152279,2.499,2.61778
0.772702,-0.152279,2.499,2.62016
0.780813,-0.152279,2.499,2.62257
