1.94473,-0.418541,3.935,4.40924
1.9575,-0.418541,3.935,4.41488
1.94774,-0.413755,3.89,4.37001
1.96036,-0.413755,3.89,4.37565
1.97299,-0.413755,3.89,4.38132
1.94172,-0.404608,3.804,4.29003
1.95407,-0.404608,3.804,4.29564
1.96641,-0.404608,3.804,4.30127
1.93558,-0.39578,3.721,4.21295
1.92672,-0.391525,3.681,4.17317
1.93867,-0.391525,3.681,4.1787
1.95062,-0.391525,3.681,4.18425
1.96257,-0.391525,3.681,4.18984
1.95359,-0.387377,3.642,4.15099
1.96542,-0.387377,3.642,4.15657
1.97724,-0.387377,3.642,4.16217
1.98906,-0.387377,3.642,4.1678
2.00088,-0.387377,3.642,4.17346
1.9917,-0.383335,3.604,4.13553
2.0034,-0.383335,3.604,4.14118
2.0151,-0.383335,3.604,4.14685
2.00542,-0.379293,3.566,4.10876
1.99607,-0.375358,3.529,4.07174
2.00752,-0.375358,3.529,4.07736
1.99838,-0.371529,3.493,4.04136
1.98958,-0.367806,3.458,4.00643
2.00081,-0.367806,3.458,4.01202
2.01203,-0.367806,3.458,4.01762
2.00277,-0.364083,3.423,3.98254
1.99388,-0.360467,3.389,3.94852
2.00488,-0.360467,3.389,3.95409
1.99625,-0.356957,3.356,3.92112
1.96887,-0.35015,3.292,3.85179
1.97955,-0.35015,3.292,3.85727
1.95275,-0.343555,3.23,3.79001
1.92677,-0.337173,3.17,3.72492
1.93706,-0.337173,3.17,3.73025
1.92953,-0.334089,3.141,3.70143
1.92182,-0.331004,3.112,3.67253
1.93192,-0.331004,3.112,3.67783
1.9077,-0.325154,3.057,3.61805
1.90068,-0.322282,3.03,3.59129
1.91052,-0.322282,3.03,3.5965
1.88676,-0.316645,2.977,3.53874
1.87986,-0.313879,2.951,3.51295
1.88944,-0.313879,2.951,3.51808
1.86684,-0.308561,2.901,3.46354
1.84521,-0.303456,2.853,3.41123
1.83887,-0.300903,2.829,3.38751
1.84806,-0.300903,2.829,3.39251
1.82704,-0.29601,2.783,3.34227
1.80704,-0.29133,2.739,3.2943
1.81593,-0.29133,2.739,3.29918
1.79618,-0.286757,2.696,3.25221
1.79087,-0.284523,2.675,3.23168
1.79955,-0.284523,2.675,3.2365
1.79404,-0.282289,2.654,3.21589
1.78839,-0.280056,2.633,3.19522
-2.21925,-0.329877,3.199,3.90736
-2.20887,-0.329877,3.199,3.90148
-2.19848,-0.329877,3.199,3.89561
-2.1881,-0.329877,3.199,3.88976
-2.17772,-0.329877,3.199,3.88393
-2.16734,-0.329877,3.199,3.87811
-2.15695,-0.329877,3.199,3.87232
-2.14657,-0.329877,3.199,3.86655
-2.15689,-0.333074,3.23,3.8982
-2.1464,-0.333074,3.23,3.89241
-2.13592,-0.333074,3.23,3.88664
-2.12544,-0.333074,3.23,3.88089
-2.11495,-0.333074,3.23,3.87516
-2.10447,-0.333074,3.23,3.86945
-2.11343,-0.336168,3.26,3.89964
-2.10285,-0.336168,3.26,3.89392
-2.09227,-0.336168,3.26,3.88821
-2.06253,-0.333074,3.23,3.8468
-2.05205,-0.333074,3.23,3.84119
-2.04156,-0.333074,3.23,3.8356
-2.03108,-0.333074,3.23,3.83003
-2.0206,-0.333074,3.23,3.82448
-2.01011,-0.333074,3.23,3.81895
-1.99963,-0.333074,3.23,3.81344
-1.98915,-0.333074,3.23,3.80796
-1.97866,-0.333074,3.23,3.80249
-1.96818,-0.333074,3.23,3.79705
-1.93891,-0.329877,3.199,3.75523
-1.92852,-0.329877,3.199,3.74988
-1.91814,-0.329877,3.199,3.74455
-1.90776,-0.329877,3.199,3.73925
nan,nan,nan,NaN
nan,nan,nan,NaN
nan,nan,nan,NaN
nan,nan,nan,NaN
nan,nan,nan,NaN
nan,nan,nan,NaN
nan,nan,nan,NaN
nan,nan,nan,NaN
nan,nan,nan,NaN
nan,nan,nan,NaN
nan,nan,nan,NaN
nan,nan,nan,NaN
nan,nan,nan,NaN
nan,nan,nan,NaN
nan,nan,nan,NaN
nan,nan,nan,NaN
nan,nan,nan,NaN
nan,nan,nan,NaN
nan,nan,nan,NaN
nan,nan,nan,NaN
nan,nan,nan,NaN
nan,nan,nan,NaN
nan,nan,nan,NaN
nan,nan,nan,NaN
nan,nan,nan,NaN
nan,nan,nan,NaN
nan,nan,nan,NaN
nan,nan,nan,NaN
nan,nan,nan,NaN
nan,nan,nan,NaN
nan,nan,nan,NaN
-1.20415,-0.252126,2.445,2.73707
-1.19622,-0.252126,2.445,2.73359
-1.18828,-0.252126,2.445,2.73013
-1.17214,-0.250373,2.428,2.70773
-1.16426,-0.250373,2.428,2.70432
-1.15638,-0.250373,2.428,2.70094
-1.1485,-0.250373,2.428,2.69758
-1.13263,-0.24862,2.411,2.67537
-1.1248,-0.24862,2.411,2.67206
-1.11698,-0.24862,2.411,2.66878
-1.10133,-0.246867,2.394,2.64672
-1.09356,-0.246867,2.394,2.64349
-1.08579,-0.246867,2.394,2.64029
-1.07802,-0.246867,2.394,2.6371
-1.06265,-0.245114,2.377,2.61523
-1.05494,-0.245114,2.377,2.61211
-1.04722,-0.245114,2.377,2.609
-1.03251,-0.243464,2.361,2.58837
-1.02485,-0.243464,2.361,2.58532
-1.01718,-0.243464,2.361,2.5823
-1.00952,-0.243464,2.361,2.57929
-1.00186,-0.243464,2.361,2.5763
-0.987455,-0.241814,2.345,2.55589
-0.979844,-0.241814,2.345,2.55296
-0.972232,-0.241814,2.345,2.55005
-0.95804,-0.240164,2.329,2.52977
-0.95048,-0.240164,2.329,2.52692
-0.942921,-0.240164,2.329,2.52409
-0.935362,-0.240164,2.329,2.52127
-0.927802,-0.240164,2.329,2.51848
-0.913921,-0.238514,2.313,2.49842
-0.906413,-0.238514,2.313,2.49569
-0.898906,-0.238514,2.313,2.49297
-0.891399,-0.238514,2.313,2.49027
-0.883891,-0.238514,2.313,2.48759
-0.876384,-0.238514,2.313,2.48494
-0.868876,-0.238514,2.313,2.4823
-0.861369,-0.238514,2.313,2.47968
-0.853861,-0.238514,2.313,2.47708
-0.846354,-0.238514,2.313,2.4745
-0.838847,-0.238514,2.313,2.47195
-0.831339,-0.238514,2.313,2.46941
-0.823832,-0.238514,2.313,2.46689
-0.816324,-0.238514,2.313,2.4644
-0.814412,-0.240164,2.329,2.47895
-0.806852,-0.240164,2.329,2.47648
-0.799293,-0.240164,2.329,2.47402
-0.791734,-0.240164,2.329,2.47159
-0.784174,-0.240164,2.329,2.46918
-0.776615,-0.240164,2.329,2.46679
-0.769056,-0.240164,2.329,2.46442
-0.761496,-0.240164,2.329,2.46207
-0.753937,-0.240164,2.329,2.45974
-0.746378,-0.240164,2.329,2.45744
-0.743894,-0.241814,2.345,2.47202
-0.736283,-0.241814,2.345,2.46974
-0.728671,-0.241814,2.345,2.46748
-0.72106,-0.241814,2.345,2.46524
-0.713449,-0.241814,2.345,2.46303
-0.710653,-0.243464,2.361,2.47762
-0.70299,-0.243464,2.361,2.47544
-0.695327,-0.243464,2.361,2.47327
-0.687664,-0.243464,2.361,2.47113
-0.684609,-0.245114,2.377,2.48574
-0.676894,-0.245114,2.377,2.48363
-0.669178,-0.245114,2.377,2.48153
-0.661463,-0.245114,2.377,2.47946
-0.658424,-0.246867,2.394,2.49514
-0.650653,-0.246867,2.394,2.4931
-0.642883,-0.246867,2.394,2.49108
-0.639623,-0.24862,2.411,2.50676
-0.631797,-0.24862,2.411,2.50478
-0.623972,-0.24862,2.411,2.50281
-0.616146,-0.24862,2.411,2.50087
-0.608321,-0.24862,2.411,2.49896
-0.600495,-0.24862,2.411,2.49706
-0.59267,-0.24862,2.411,2.49519
-0.584844,-0.24862,2.411,2.49335
-0.577019,-0.24862,2.411,2.49152
-0.569193,-0.24862,2.411,2.48972
-0.561368,-0.24862,2.411,2.48794
-0.557445,-0.250373,2.428,2.50372
-0.549564,-0.250373,2.428,2.50198
-0.541684,-0.250373,2.428,2.50026
-0.533803,-0.250373,2.428,2.49856
-0.525922,-0.250373,2.428,2.49689
-0.518042,-0.250373,2.428,2.49524
-0.510161,-0.250373,2.428,2.49362
-0.50228,-0.250373,2.428,2.49202
-0.497861,-0.252126,2.445,2.50788
-0.489925,-0.252126,2.445,2.50632
-0.481989,-0.252126,2.445,2.50478
-0.474054,-0.252126,2.445,2.50326
-0.466118,-0.252126,2.445,2.50177
-0.458182,-0.252126,2.445,2.5003
-0.450246,-0.252126,2.445,2.49886
-0.44231,-0.252126,2.445,2.49745
-0.434374,-0.252126,2.445,2.49605
-0.426438,-0.252126,2.445,2.49468
-0.418503,-0.252126,2.445,2.49334
-0.410567,-0.252126,2.445,2.49202
-0.402631,-0.252126,2.445,2.49072
-0.394695,-0.252126,2.445,2.48945
-0.386759,-0.252126,2.445,2.48821
-0.378823,-0.252126,2.445,2.48699
-0.370887,-0.252126,2.445,2.48579
-0.360428,-0.250373,2.428,2.46734
-0.352547,-0.250373,2.428,2.4662
-0.344667,-0.250373,2.428,2.46509
-0.336786,-0.250373,2.428,2.464
-0.328905,-0.250373,2.428,2.46294
-0.321025,-0.250373,2.428,2.4619
-0.313144,-0.250373,2.428,2.46088
-0.305263,-0.250373,2.428,2.45989
-0.297382,-0.250373,2.428,2.45892
-0.289502,-0.250373,2.428,2.45798
-0.281621,-0.250373,2.428,2.45707
-0.27374,-0.250373,2.428,2.45618
-0.26586,-0.250373,2.428,2.45531
-0.259785,-0.252126,2.445,2.47166
-0.251849,-0.252126,2.445,2.47083
-0.243914,-0.252126,2.445,2.47004
-0.235978,-0.252126,2.445,2.46927
-0.228042,-0.252126,2.445,2.46852
-0.220106,-0.252126,2.445,2.4678
-0.213732,-0.253982,2.463,2.48527
-0.205738,-0.253982,2.463,2.48459
-0.197744,-0.253982,2.463,2.48394
-0.189749,-0.253982,2.463,2.48332
-0.183083,-0.255838,2.481,2.50087
-0.175031,-0.255838,2.481,2.50029
-0.166978,-0.255838,2.481,2.49974
-0.158925,-0.255838,2.481,2.49921
-0.150872,-0.255838,2.481,2.49872
-0.14282,-0.255838,2.481,2.49824
-0.134767,-0.255838,2.481,2.49779
-0.126714,-0.255838,2.481,2.49737
-0.118662,-0.255838,2.481,2.49698
-0.110609,-0.255838,2.481,2.49661
-0.1033,-0.257694,2.499,2.51437
-0.0951891,-0.257694,2.499,2.51405
-0.087078,-0.257694,2.499,2.51376
-0.0789668,-0.257694,2.499,2.51349
-0.0713661,-0.25955,2.517,2.53135
-0.0631965,-0.25955,2.517,2.53114
-0.055027,-0.25955,2.517,2.53095
-0.0472111,-0.26151,2.536,2.54988
-0.0389799,-0.26151,2.536,2.54975
-0.0307487,-0.26151,2.536,2.54963
-0.0225174,-0.26151,2.536,2.54955
-0.0142862,-0.26151,2.536,2.54949
-0.00605498,-0.26151,2.536,2.54945
0.00219255,-0.263469,2.555,2.56855
0.0104854,-0.263469,2.555,2.56857
0.0187783,-0.263469,2.555,2.56862
0.0270712,-0.263469,2.555,2.56869
0.0353641,-0.263469,2.555,2.56879
0.0433324,-0.26151,2.536,2.54982
0.0511773,-0.25955,2.517,2.53086
0.0593468,-0.25955,2.517,2.53104
0.0675164,-0.25955,2.517,2.53125
0.0751447,-0.257694,2.499,2.51338
0.0832558,-0.257694,2.499,2.51363
0.091367,-0.257694,2.499,2.51391
0.0994781,-0.257694,2.499,2.51422
0.106814,-0.255838,2.481,2.49644
0.114867,-0.255838,2.481,2.4968
0.12292,-0.255838,2.481,2.49718
0.130972,-0.255838,2.481,2.49759
0.139025,-0.255838,2.481,2.49803
0.147078,-0.255838,2.481,2.49849
0.155131,-0.255838,2.481,2.49898
0.164367,-0.257694,2.499,2.51762
0.172478,-0.257694,2.499,2.51817
0.180589,-0.257694,2.499,2.51873
0.188701,-0.257694,2.499,2.51933
0.198229,-0.25955,2.517,2.5381
0.204923,-0.257694,2.499,2.5206
0.213034,-0.257694,2.499,2.52127
0.221145,-0.257694,2.499,2.52197
0.227605,-0.255838,2.481,2.50452
0.235658,-0.255838,2.481,2.50526
0.24371,-0.255838,2.481,2.50603
0.251763,-0.255838,2.481,2.50683
0.259816,-0.255838,2.481,2.50765
0.267868,-0.255838,2.481,2.5085
0.275921,-0.255838,2.481,2.50937
0.283974,-0.255838,2.481,2.51027
0.289908,-0.253982,2.463,2.49297
0.297902,-0.253982,2.463,2.49392
0.305896,-0.253982,2.463,2.49488
0.316185,-0.255838,2.481,2.51412
0.324237,-0.255838,2.481,2.51514
0.33229,-0.255838,2.481,2.51619
0.340343,-0.255838,2.481,2.51727
0.348396,-0.255838,2.481,2.51837
0.356448,-0.255838,2.481,2.5195
0.364501,-0.255838,2.481,2.52065
0.372554,-0.255838,2.481,2.52183
0.380606,-0.255838,2.481,2.52303
0.388659,-0.255838,2.481,2.52426
0.396712,-0.255838,2.481,2.52551
0.404765,-0.255838,2.481,2.52679
0.412817,-0.255838,2.481,2.52809
0.423923,-0.257694,2.499,2.54777
0.432035,-0.257694,2.499,2.54913
0.440146,-0.257694,2.499,2.55052
0.448257,-0.257694,2.499,2.55193
0.456368,-0.257694,2.499,2.55337
0.464479,-0.257694,2.499,2.55483
0.47259,-0.257694,2.499,2.55632
0.480701,-0.257694,2.499,2.55783
0.488812,-0.257694,2.499,2.55936
0.496924,-0.257694,2.499,2.56093
0.505035,-0.257694,2.499,2.56251
0.513146,-0.257694,2.499,2.56412
0.521257,-0.257694,2.499,2.56576
0.529368,-0.257694,2.499,2.56742
0.537479,-0.257694,2.499,2.5691
0.54559,-0.257694,2.499,2.57081
0.549713,-0.255838,2.481,2.55402
0.557766,-0.255838,2.481,2.55576
0.565819,-0.255838,2.481,2.55753
0.573871,-0.255838,2.481,2.55932
0.581924,-0.255838,2.481,2.56114
0.589977,-0.255838,2.481,2.56298
0.59803,-0.255838,2.481,2.56485
0.606082,-0.255838,2.481,2.56674
0.614135,-0.255838,2.481,2.56865
0.622188,-0.255838,2.481,2.57059
0.63024,-0.255838,2.481,2.57255
0.642924,-0.257694,2.499,2.59321
0.651035,-0.257694,2.499,2.59524
0.659146,-0.257694,2.499,2.59728
0.667257,-0.257694,2.499,2.59935
0.675369,-0.257694,2.499,2.60145
0.68348,-0.257694,2.499,2.60357
0.691591,-0.257694,2.499,2.60571
0.699702,-0.257694,2.499,2.60787
0.707813,-0.257694,2.499,2.61006
0.715924,-0.257694,2.499,2.61227
0.724035,-0.257694,2.499,2.6145
0.732147,-0.257694,2.499,2.61676
0.740258,-0.257694,2.499,2.61904
0.748369,-0.257694,2.499,2.62135
0.761929,-0.25955,2.517,2.64257
0.770098,-0.25955,2.517,2.64494
0.778268,-0.25955,2.517,2.64733
0.786437,-0.25955,2.517,2.64974
0.794607,-0.25955,2.517,2.65218
0.802777,-0.25955,2.517,2.65464
0.810946,-0.25955,2.517,2.65712
0.819116,-0.25955,2.517,2.65963
0.827285,-0.25955,2.517,2.66215
0.841761,-0.26151,2.536,2.68482
0.843624,-0.25955,2.517,2.66728
0.851794,-0.25955,2.517,2.66987
0.859963,-0.25955,2.517,2.67249
0.868133,-0.25955,2.517,2.67513
0.870036,-0.257694,2.499,2.65864
0.878147,-0.257694,2.499,2.66131
0.886258,-0.257694,2.499,2.66399
0.894369,-0.257694,2.499,2.6667
0.90248,-0.257694,2.499,2.66943
0.910591,-0.257694,2.499,2.67219
0.912085,-0.255838,2.481,2.65569
0.913462,-0.253982,2.463,2.63918
0.921457,-0.253982,2.463,2.64196
0.922658,-0.252126,2.445,2.62543
0.930594,-0.252126,2.445,2.62823
0.932004,-0.250373,2.428,2.61276
0.939885,-0.250373,2.428,2.61558
0.947766,-0.250373,2.428,2.61842
0.948955,-0.24862,2.411,2.60293
0.956781,-0.24862,2.411,2.60579
0.964606,-0.24862,2.411,2.60868
0.972432,-0.24862,2.411,2.61158
0.980257,-0.24862,2.411,2.61451
0.988083,-0.24862,2.411,2.61745
nan,nan,nan,NaN
nan,nan,nan,NaN
nan,nan,nan,NaN
nan,nan,nan,NaN
nan,nan,nan,NaN
nan,nan,nan,NaN
nan,nan,nan,NaN
nan,nan,nan,NaN
nan,nan,nan,NaN
nan,nan,nan,NaN
nan,nan,nan,NaN
nan,nan,nan,NaN
nan,nan,nan,NaN
nan,nan,nan,NaN
1.7836,-0.401133,3.89,4.29817
1.79623,-0.401133,3.89,4.30342
1.80885,-0.401133,3.89,4.30871
1.82148,-0.401133,3.89,4.31402
1.8341,-0.401133,3.89,4.31937
1.86809,-0.405773,3.935,4.37477
1.88087,-0.405773,3.935,4.38024
1.89364,-0.405773,3.935,4.38574
1.90641,-0.405773,3.935,4.39127
1.91918,-0.405773,3.935,4.39683
1.93195,-0.405773,3.935,4.40242
1.94473,-0.405773,3.935,4.40804
1.9575,-0.405773,3.935,4.41369
1.94774,-0.401133,3.89,4.36883
1.96036,-0.401133,3.89,4.37448
nan,nan,nan,NaN
nan,nan,nan,NaN
nan,nan,nan,NaN
nan,nan,nan,NaN
nan,nan,nan,NaN
nan,nan,nan,NaN
nan,nan,nan,NaN
1.99354,-0.387933,3.762,4.2752
1.98389,-0.383705,3.721,4.23425
1.99597,-0.383705,3.721,4.23993
2.00805,-0.383705,3.721,4.24563
1.99841,-0.379581,3.681,4.20565
2.01036,-0.379581,3.681,4.21134
2.02231,-0.379581,3.681,4.21706
2.0127,-0.375559,3.642,4.17806
2.02452,-0.375559,3.642,4.18377
2.03634,-0.375559,3.642,4.1895
2.02679,-0.371641,3.604,4.15148
2.017,-0.367722,3.566,4.11337
2.02857,-0.367722,3.566,4.11906
1.99838,-0.360194,3.493,4.04034
1.98958,-0.356585,3.458,4.00542
2.00081,-0.356585,3.458,4.011
2.01203,-0.356585,3.458,4.01661
2.00277,-0.352976,3.423,3.98154
1.99388,-0.34947,3.389,3.94753
2.00488,-0.34947,3.389,3.9531
1.99625,-0.346067,3.356,3.92014
1.96887,-0.339467,3.292,3.85084
1.97955,-0.339467,3.292,3.85631
1.95275,-0.333074,3.23,3.78908
1.92677,-0.326887,3.17,3.724
1.93706,-0.326887,3.17,3.72934
1.92953,-0.323897,3.141,3.70053
1.92182,-0.320906,3.112,3.67164
1.93192,-0.320906,3.112,3.67693
1.94202,-0.320906,3.112,3.68225
1.90068,-0.31245,3.03,3.59042
1.91052,-0.31245,3.03,3.59564
1.88676,-0.306985,2.977,3.53789
1.87986,-0.304304,2.951,3.51211
1.88944,-0.304304,2.951,3.51724
1.86684,-0.299148,2.901,3.46271
1.86074,-0.296673,2.877,3.43911
1.83887,-0.291723,2.829,3.38671
1.84806,-0.291723,2.829,3.3917
1.82704,-0.28698,2.783,3.34149
1.82156,-0.284711,2.761,3.31998
1.83052,-0.284711,2.761,3.3249
1.79618,-0.278009,2.696,3.25145
1.79087,-0.275843,2.675,3.23093
1.79955,-0.275843,2.675,3.23575
1.79404,-0.273678,2.654,3.21515
1.78839,-0.271512,2.633,3.19449
-2.1589,-0.310808,3.112,3.80026
-2.1488,-0.310808,3.112,3.79453
-2.13869,-0.310808,3.112,3.78882
-2.12859,-0.310808,3.112,3.78313
-2.11849,-0.310808,3.112,3.77745
-2.12804,-0.313705,3.141,3.80695
-2.11785,-0.313705,3.141,3.80126
-2.10765,-0.313705,3.141,3.79559
-2.11682,-0.316601,3.17,3.82493
-2.10653,-0.316601,3.17,3.81924
-2.09624,-0.316601,3.17,3.81358
-2.10504,-0.319497,3.199,3.84277
-2.09465,-0.319497,3.199,3.83709
-2.08427,-0.319497,3.199,3.83143
-2.07389,-0.319497,3.199,3.82579
-2.0635,-0.319497,3.199,3.82017
-2.05312,-0.319497,3.199,3.81458
-2.04274,-0.319497,3.199,3.809
-2.03235,-0.319497,3.199,3.80344
-2.02197,-0.319497,3.199,3.7979
-2.01159,-0.319497,3.199,3.79238
-2.0012,-0.319497,3.199,3.78689
-1.99082,-0.319497,3.199,3.78141
-1.98044,-0.319497,3.199,3.77595
-1.97006,-0.319497,3.199,3.77052
-1.95967,-0.319497,3.199,3.7651
-1.94929,-0.319497,3.199,3.75971
-1.92133,-0.316601,3.17,3.7203
-1.91104,-0.316601,3.17,3.715
-1.90075,-0.316601,3.17,3.70972
-1.89046,-0.316601,3.17,3.70445
nan,nan,nan,NaN
nan,nan,nan,NaN
nan,nan,nan,NaN
nan,nan,nan,NaN
nan,nan,nan,NaN
nan,nan,nan,NaN
nan,nan,nan,NaN
nan,nan,nan,NaN
nan,nan,nan,NaN
nan,nan,nan,NaN
nan,nan,nan,NaN
nan,nan,nan,NaN
nan,nan,nan,NaN
nan,nan,nan,NaN
nan,nan,nan,NaN
nan,nan,nan,NaN
nan,nan,nan,NaN
nan,nan,nan,NaN
nan,nan,nan,NaN
nan,nan,nan,NaN
nan,nan,nan,NaN
nan,nan,nan,NaN
nan,nan,nan,NaN
nan,nan,nan,NaN
nan,nan,nan,NaN
nan,nan,nan,NaN
nan,nan,nan,NaN
nan,nan,nan,NaN
nan,nan,nan,NaN
nan,nan,nan,NaN
nan,nan,nan,NaN
nan,nan,nan,NaN
-1.19622,-0.244192,2.445,2.73287
-1.18828,-0.244192,2.445,2.72941
-1.17214,-0.242494,2.428,2.70701
-1.16426,-0.242494,2.428,2.70361
-1.15638,-0.242494,2.428,2.70022
-1.1485,-0.242494,2.428,2.69686
-1.13263,-0.240796,2.411,2.67465
-1.1248,-0.240796,2.411,2.67135
-1.11698,-0.240796,2.411,2.66806
-1.10133,-0.239099,2.394,2.646
-1.09356,-0.239099,2.394,2.64278
-1.08579,-0.239099,2.394,2.63957
-1.07802,-0.239099,2.394,2.63639
-1.06265,-0.237401,2.377,2.61452
-1.05494,-0.237401,2.377,2.61139
-1.04722,-0.237401,2.377,2.60829
-1.03251,-0.235803,2.361,2.58766
-1.02485,-0.235803,2.361,2.58461
-1.01718,-0.235803,2.361,2.58159
-1.00952,-0.235803,2.361,2.57858
-1.00186,-0.235803,2.361,2.57559
-0.987455,-0.234205,2.345,2.55518
-0.979844,-0.234205,2.345,2.55225
-0.972232,-0.234205,2.345,2.54934
-0.964621,-0.234205,2.345,2.54644
-0.95048,-0.232607,2.329,2.52621
-0.942921,-0.232607,2.329,2.52338
-0.935362,-0.232607,2.329,2.52057
-0.927802,-0.232607,2.329,2.51777
-0.920243,-0.232607,2.329,2.51499
-0.912683,-0.232607,2.329,2.51224
-0.905124,-0.232607,2.329,2.5095
-0.897565,-0.232607,2.329,2.50678
-0.890005,-0.232607,2.329,2.50409
-0.876384,-0.231009,2.313,2.48423
-0.868876,-0.231009,2.313,2.48159
-0.861369,-0.231009,2.313,2.47897
-0.853861,-0.231009,2.313,2.47637
-0.846354,-0.231009,2.313,2.47379
-0.838847,-0.231009,2.313,2.47123
-0.83709,-0.232607,2.329,2.48577
-0.829531,-0.232607,2.329,2.48324
-0.821971,-0.232607,2.329,2.48072
-0.814412,-0.232607,2.329,2.47823
-0.806852,-0.232607,2.329,2.47575
-0.799293,-0.232607,2.329,2.4733
-0.791734,-0.232607,2.329,2.47087
-0.784174,-0.232607,2.329,2.46846
-0.776615,-0.232607,2.329,2.46607
-0.769056,-0.232607,2.329,2.4637
-0.761496,-0.232607,2.329,2.46135
-0.753937,-0.232607,2.329,2.45902
-0.751505,-0.234205,2.345,2.47359
-0.743894,-0.234205,2.345,2.47129
-0.736283,-0.234205,2.345,2.46901
-0.733643,-0.235803,2.361,2.48358
-0.72598,-0.235803,2.361,2.48132
-0.718317,-0.235803,2.361,2.47909
-0.710653,-0.235803,2.361,2.47688
-0.70299,-0.235803,2.361,2.4747
-0.700039,-0.237401,2.377,2.48929
-0.692324,-0.237401,2.377,2.48713
-0.684609,-0.237401,2.377,2.48499
-0.681735,-0.239099,2.394,2.50063
-0.673964,-0.239099,2.394,2.49853
-0.666194,-0.239099,2.394,2.49644
-0.658424,-0.239099,2.394,2.49438
-0.650653,-0.239099,2.394,2.49234
-0.642883,-0.239099,2.394,2.49032
-0.639623,-0.240796,2.411,2.506
-0.631797,-0.240796,2.411,2.50401
-0.623972,-0.240796,2.411,2.50205
-0.616146,-0.240796,2.411,2.50011
-0.608321,-0.240796,2.411,2.49819
-0.600495,-0.240796,2.411,2.4963
-0.59267,-0.240796,2.411,2.49443
-0.584844,-0.240796,2.411,2.49258
-0.577019,-0.240796,2.411,2.49075
-0.569193,-0.240796,2.411,2.48895
-0.565326,-0.242494,2.428,2.50471
-0.557445,-0.242494,2.428,2.50294
-0.549564,-0.242494,2.428,2.5012
-0.541684,-0.242494,2.428,2.49948
-0.533803,-0.242494,2.428,2.49779
-0.525922,-0.242494,2.428,2.49611
-0.518042,-0.242494,2.428,2.49447
-0.513733,-0.244192,2.445,2.51029
-0.505797,-0.244192,2.445,2.50868
-0.501526,-0.24599,2.463,2.52555
-0.493532,-0.24599,2.463,2.52398
-0.485538,-0.24599,2.463,2.52242
-0.477544,-0.24599,2.463,2.5209
-0.469549,-0.24599,2.463,2.5194
-0.461555,-0.24599,2.463,2.51792
-0.453561,-0.24599,2.463,2.51647
-0.445566,-0.24599,2.463,2.51504
-0.437572,-0.24599,2.463,2.51363
-0.426438,-0.244192,2.445,2.49389
-0.418503,-0.244192,2.445,2.49255
-0.410567,-0.244192,2.445,2.49123
-0.402631,-0.244192,2.445,2.48993
-0.394695,-0.244192,2.445,2.48866
-0.386759,-0.244192,2.445,2.48742
-0.378823,-0.244192,2.445,2.48619
-0.370887,-0.244192,2.445,2.485
-0.360428,-0.242494,2.428,2.46656
-0.352547,-0.242494,2.428,2.46542
-0.344667,-0.242494,2.428,2.4643
-0.336786,-0.242494,2.428,2.46321
-0.328905,-0.242494,2.428,2.46215
-0.321025,-0.242494,2.428,2.46111
-0.313144,-0.242494,2.428,2.46009
-0.305263,-0.242494,2.428,2.4591
-0.297382,-0.242494,2.428,2.45813
-0.289502,-0.242494,2.428,2.45719
-0.281621,-0.242494,2.428,2.45628
-0.27374,-0.242494,2.428,2.45539
-0.26586,-0.242494,2.428,2.45452
-0.259785,-0.244192,2.445,2.47086
-0.251849,-0.244192,2.445,2.47004
-0.243914,-0.244192,2.445,2.46924
-0.235978,-0.244192,2.445,2.46847
-0.228042,-0.244192,2.445,2.46772
-0.220106,-0.244192,2.445,2.467
-0.213732,-0.24599,2.463,2.48446
-0.205738,-0.24599,2.463,2.48379
-0.197744,-0.24599,2.463,2.48314
-0.189749,-0.24599,2.463,2.48252
-0.183083,-0.247788,2.481,2.50006
-0.175031,-0.247788,2.481,2.49948
-0.166978,-0.247788,2.481,2.49893
-0.158925,-0.247788,2.481,2.4984
-0.150872,-0.247788,2.481,2.4979
-0.14282,-0.247788,2.481,2.49743
-0.134767,-0.247788,2.481,2.49698
-0.126714,-0.247788,2.481,2.49656
-0.118662,-0.247788,2.481,2.49617
-0.110609,-0.247788,2.481,2.4958
-0.1033,-0.249585,2.499,2.51356
-0.0951891,-0.249585,2.499,2.51324
-0.087078,-0.249585,2.499,2.51294
-0.0789668,-0.249585,2.499,2.51267
-0.0713661,-0.251383,2.517,2.53053
-0.0631965,-0.251383,2.517,2.53031
-0.055027,-0.251383,2.517,2.53012
-0.0468574,-0.251383,2.517,2.52996
-0.0389799,-0.253281,2.536,2.54891
-0.0307487,-0.253281,2.536,2.5488
-0.0225174,-0.253281,2.536,2.54872
-0.0142862,-0.253281,2.536,2.54866
-0.00605498,-0.253281,2.536,2.54862
0.00219255,-0.255178,2.555,2.56771
0.0104854,-0.255178,2.555,2.56773
0.0187783,-0.255178,2.555,2.56778
0.0270712,-0.255178,2.555,2.56785
0.0353641,-0.255178,2.555,2.56795
0.0433324,-0.253281,2.536,2.54899
0.0511773,-0.251383,2.517,2.53004
0.0593468,-0.251383,2.517,2.53022
0.0675164,-0.251383,2.517,2.53042
0.0751447,-0.249585,2.499,2.51256
0.0832558,-0.249585,2.499,2.51281
0.091367,-0.249585,2.499,2.51309
0.0994781,-0.249585,2.499,2.5134
0.106814,-0.247788,2.481,2.49563
0.114867,-0.247788,2.481,2.49599
0.12292,-0.247788,2.481,2.49637
0.130972,-0.247788,2.481,2.49678
0.139025,-0.247788,2.481,2.49722
0.147078,-0.247788,2.481,2.49768
0.155131,-0.247788,2.481,2.49816
0.164367,-0.249585,2.499,2.51681
0.172478,-0.249585,2.499,2.51735
0.180589,-0.249585,2.499,2.51792
0.19006,-0.251383,2.517,2.53665
0.198229,-0.251383,2.517,2.53728
0.206399,-0.251383,2.517,2.53793
0.213034,-0.249585,2.499,2.52045
0.221145,-0.249585,2.499,2.52115
0.229256,-0.249585,2.499,2.52187
0.237367,-0.249585,2.499,2.52263
0.245479,-0.249585,2.499,2.5234
0.25359,-0.249585,2.499,2.5242
0.261701,-0.249585,2.499,2.52503
0.267868,-0.247788,2.481,2.50769
0.275921,-0.247788,2.481,2.50856
0.283974,-0.247788,2.481,2.50946
0.292027,-0.247788,2.481,2.51039
0.300079,-0.247788,2.481,2.51134
0.308132,-0.247788,2.481,2.51231
0.316185,-0.247788,2.481,2.51331
0.324237,-0.247788,2.481,2.51434
0.33229,-0.247788,2.481,2.51539
0.340343,-0.247788,2.481,2.51646
0.348396,-0.247788,2.481,2.51757
0.356448,-0.247788,2.481,2.51869
0.364501,-0.247788,2.481,2.51985
0.372554,-0.247788,2.481,2.52102
0.380606,-0.247788,2.481,2.52223
0.388659,-0.247788,2.481,2.52345
0.396712,-0.247788,2.481,2.52471
0.407701,-0.249585,2.499,2.54431
0.415812,-0.249585,2.499,2.54562
0.423923,-0.249585,2.499,2.54696
0.432035,-0.249585,2.499,2.54832
0.440146,-0.249585,2.499,2.54971
0.448257,-0.249585,2.499,2.55112
0.456368,-0.249585,2.499,2.55256
0.464479,-0.249585,2.499,2.55402
0.47259,-0.249585,2.499,2.55551
0.480701,-0.249585,2.499,2.55702
0.488812,-0.249585,2.499,2.55856
0.496924,-0.249585,2.499,2.56012
0.505035,-0.249585,2.499,2.56171
0.513146,-0.249585,2.499,2.56332
0.521257,-0.249585,2.499,2.56496
0.529368,-0.249585,2.499,2.56662
0.537479,-0.249585,2.499,2.5683
0.54559,-0.249585,2.499,2.57001
0.553702,-0.249585,2.499,2.57175
0.557766,-0.247788,2.481,2.55497
0.565819,-0.247788,2.481,2.55674
0.573871,-0.247788,2.481,2.55853
0.581924,-0.247788,2.481,2.56035
0.589977,-0.247788,2.481,2.56219
0.59803,-0.247788,2.481,2.56406
0.606082,-0.247788,2.481,2.56595
0.614135,-0.247788,2.481,2.56786
0.622188,-0.247788,2.481,2.5698
0.63024,-0.247788,2.481,2.57176
0.638293,-0.247788,2.481,2.57375
0.646346,-0.247788,2.481,2.57576
0.654399,-0.247788,2.481,2.57779
0.662451,-0.247788,2.481,2.57985
0.675369,-0.249585,2.499,2.60066
0.68348,-0.249585,2.499,2.60278
0.691591,-0.249585,2.499,2.60492
0.699702,-0.249585,2.499,2.60708
0.707813,-0.249585,2.499,2.60927
0.715924,-0.249585,2.499,2.61148
0.724035,-0.249585,2.499,2.61372
0.732147,-0.249585,2.499,2.61598
0.740258,-0.249585,2.499,2.61826
0.748369,-0.249585,2.499,2.62056
0.761929,-0.251383,2.517,2.64178
0.770098,-0.251383,2.517,2.64415
0.778268,-0.251383,2.517,2.64654
0.786437,-0.251383,2.517,2.64896
0.794607,-0.251383,2.517,2.65139
0.802777,-0.251383,2.517,2.65385
0.810946,-0.251383,2.517,2.65634
0.819116,-0.251383,2.517,2.65884
0.827285,-0.251383,2.517,2.66137
0.841761,-0.253281,2.536,2.68403
0.843624,-0.251383,2.517,2.66649
0.851794,-0.251383,2.517,2.66909
0.859963,-0.251383,2.517,2.67171
0.868133,-0.251383,2.517,2.67435
0.870036,-0.249585,2.499,2.65787
0.878147,-0.249585,2.499,2.66053
0.886258,-0.249585,2.499,2.66322
0.894369,-0.249585,2.499,2.66593
0.90248,-0.249585,2.499,2.66866
0.910591,-0.249585,2.499,2.67142
0.912085,-0.247788,2.481,2.65493
0.913462,-0.24599,2.463,2.63843
0.921457,-0.24599,2.463,2.6412
0.929451,-0.24599,2.463,2.644
0.930594,-0.244192,2.445,2.62748
0.932004,-0.242494,2.428,2.61201
0.939885,-0.242494,2.428,2.61484
0.947766,-0.242494,2.428,2.61768
0.948955,-0.240796,2.411,2.6022
0.956781,-0.240796,2.411,2.60506
0.964606,-0.240796,2.411,2.60794
0.972432,-0.240796,2.411,2.61085
0.980257,-0.240796,2.411,2.61377
0.988083,-0.240796,2.411,2.61672
nan,nan,nan,NaN
nan,nan,nan,NaN
nan,nan,nan,NaN
nan,nan,nan,NaN
nan,nan,nan,NaN
nan,nan,nan,NaN
nan,nan,nan,NaN
nan,nan,nan,NaN
nan,nan,nan,NaN
nan,nan,nan,NaN
nan,nan,nan,NaN
nan,nan,nan,NaN
nan,nan,nan,NaN
nan,nan,nan,NaN
nan,nan,nan,NaN
1.79623,-0.38851,3.89,4.30226
1.80885,-0.38851,3.89,4.30755
1.82148,-0.38851,3.89,4.31287
1.8341,-0.38851,3.89,4.31821
1.86809,-0.393005,3.935,4.37361
1.88087,-0.393005,3.935,4.37908
1.89364,-0.393005,3.935,4.38458
1.90641,-0.393005,3.935,4.39011
1.91918,-0.393005,3.935,4.39567
1.93195,-0.393005,3.935,4.40126
1.94473,-0.393005,3.935,4.40689
1.9575,-0.393005,3.935,4.41254
1.94774,-0.38851,3.89,4.36769
1.96036,-0.38851,3.89,4.37334
nan,nan,nan,NaN
nan,nan,nan,NaN
nan,nan,nan,NaN
nan,nan,nan,NaN
nan,nan,nan,NaN
nan,nan,nan,NaN
nan,nan,nan,NaN
1.99354,-0.375726,3.762,4.27411
1.98389,-0.371631,3.721,4.23318
1.99597,-0.371631,3.721,4.23885
2.00805,-0.371631,3.721,4.24455
1.99841,-0.367637,3.681,4.20459
2.01036,-0.367637,3.681,4.21028
2.02231,-0.367637,3.681,4.216
2.0127,-0.363741,3.642,4.17701
2.02452,-0.363741,3.642,4.18272
2.03634,-0.363741,3.642,4.18846
2.02679,-0.359946,3.604,4.15045
2.017,-0.356151,3.566,4.11236
2.02857,-0.356151,3.566,4.11805
1.99838,-0.34886,3.493,4.03934
1.98958,-0.345365,3.458,4.00443
2.00081,-0.345365,3.458,4.01002
2.01203,-0.345365,3.458,4.01563
2.00277,-0.341869,3.423,3.98057
1.99388,-0.338473,3.389,3.94657
2.00488,-0.338473,3.389,3.95214
1.99625,-0.335177,3.356,3.9192
1.96887,-0.328786,3.292,3.84991
1.97955,-0.328786,3.292,3.85538
1.95275,-0.322593,3.23,3.78817
1.92677,-0.316601,3.17,3.72311
1.93706,-0.316601,3.17,3.72845
1.92953,-0.313705,3.141,3.69965
1.92182,-0.310808,3.112,3.67077
1.93192,-0.310808,3.112,3.67607
1.92455,-0.308012,3.084,3.64826
1.90068,-0.302618,3.03,3.58958
1.91052,-0.302618,3.03,3.5948
1.88676,-0.297325,2.977,3.53706
1.87986,-0.294728,2.951,3.51129
1.88944,-0.294728,2.951,3.51643
1.86684,-0.289735,2.901,3.46191
1.86074,-0.287338,2.877,3.43832
1.83887,-0.282544,2.829,3.38593
1.84806,-0.282544,2.829,3.39093
1.82704,-0.27795,2.783,3.34072
1.82156,-0.275752,2.761,3.31922
1.83052,-0.275752,2.761,3.32415
1.81017,-0.271358,2.717,3.27604
1.79087,-0.267163,2.675,3.2302
1.79955,-0.267163,2.675,3.23502
1.79404,-0.265066,2.654,3.21443
1.78839,-0.262968,2.633,3.19377
-2.12074,-0.295396,3.057,3.7323
-2.11082,-0.295396,3.057,3.72667
-2.1009,-0.295396,3.057,3.72106
-2.09097,-0.295396,3.057,3.71547
-2.08105,-0.295396,3.057,3.70989
-2.08942,-0.298005,3.084,3.73705
-2.06121,-0.295396,3.057,3.69879
-2.05129,-0.295396,3.057,3.69327
-2.05939,-0.298005,3.084,3.72034
-2.04938,-0.298005,3.084,3.71481
-2.05789,-0.30071,3.112,3.74298
-2.04779,-0.30071,3.112,3.73743
-2.03769,-0.30071,3.112,3.73191
-2.02759,-0.30071,3.112,3.7264
-2.03629,-0.303512,3.141,3.75559
-2.0448,-0.306315,3.17,3.7847
-2.03451,-0.306315,3.17,3.77915
-2.02422,-0.306315,3.17,3.77362
-2.01393,-0.306315,3.17,3.76811
-2.00364,-0.306315,3.17,3.76262
-1.99335,-0.306315,3.17,3.75715
-1.98306,-0.306315,3.17,3.7517
-1.97277,-0.306315,3.17,3.74627
-1.96248,-0.306315,3.17,3.74087
-1.9522,-0.306315,3.17,3.73548
-1.94191,-0.306315,3.17,3.73011
-1.91395,-0.303512,3.141,3.69069
-1.88618,-0.30071,3.112,3.65139
-1.87607,-0.30071,3.112,3.64618
-1.86597,-0.30071,3.112,3.64099
-1.85587,-0.30071,3.112,3.63583
nan,nan,nan,NaN
nan,nan,nan,NaN
nan,nan,nan,NaN
nan,nan,nan,NaN
nan,nan,nan,NaN
nan,nan,nan,NaN
nan,nan,nan,NaN
nan,nan,nan,NaN
nan,nan,nan,NaN
nan,nan,nan,NaN
nan,nan,nan,NaN
nan,nan,nan,NaN
nan,nan,nan,NaN
nan,nan,nan,NaN
nan,nan,nan,NaN
nan,nan,nan,NaN
nan,nan,nan,NaN
nan,nan,nan,NaN
nan,nan,nan,NaN
nan,nan,nan,NaN
nan,nan,nan,NaN
nan,nan,nan,NaN
nan,nan,nan,NaN
nan,nan,nan,NaN
nan,nan,nan,NaN
nan,nan,nan,NaN
nan,nan,nan,NaN
nan,nan,nan,NaN
nan,nan,nan,NaN
nan,nan,nan,NaN
nan,nan,nan,NaN
nan,nan,nan,NaN
-1.19622,-0.236259,2.445,2.73217
-1.18828,-0.236259,2.445,2.72871
-1.18035,-0.236259,2.445,2.72526
-1.16426,-0.234616,2.428,2.70291
-1.15638,-0.234616,2.428,2.69953
-1.1485,-0.234616,2.428,2.69616
-1.13263,-0.232973,2.411,2.67396
-1.1248,-0.232973,2.411,2.67065
-1.11698,-0.232973,2.411,2.66737
-1.10133,-0.23133,2.394,2.64531
-1.09356,-0.23133,2.394,2.64209
-1.08579,-0.23133,2.394,2.63888
-1.07802,-0.23133,2.394,2.63569
-1.07025,-0.23133,2.394,2.63252
-1.06248,-0.23133,2.394,2.62938
-1.04722,-0.229688,2.377,2.6076
-1.03951,-0.229688,2.377,2.60451
-1.03179,-0.229688,2.377,2.60144
-1.01718,-0.228142,2.361,2.5809
-1.00952,-0.228142,2.361,2.57789
-1.00186,-0.228142,2.361,2.5749
-0.994193,-0.228142,2.361,2.57192
-0.986529,-0.228142,2.361,2.56897
-0.978866,-0.228142,2.361,2.56604
-0.964621,-0.226596,2.345,2.54575
-0.95701,-0.226596,2.345,2.54288
-0.949399,-0.226596,2.345,2.54003
-0.941787,-0.226596,2.345,2.53719
-0.927802,-0.22505,2.329,2.51708
-0.920243,-0.22505,2.329,2.51431
-0.912683,-0.22505,2.329,2.51155
-0.905124,-0.22505,2.329,2.50881
-0.897565,-0.22505,2.329,2.50609
-0.890005,-0.22505,2.329,2.5034
-0.882446,-0.22505,2.329,2.50072
-0.874887,-0.22505,2.329,2.49806
-0.861369,-0.223503,2.313,2.47828
-0.853861,-0.223503,2.313,2.47568
-0.846354,-0.223503,2.313,2.4731
-0.838847,-0.223503,2.313,2.47054
-0.83709,-0.22505,2.329,2.48508
-0.829531,-0.22505,2.329,2.48254
-0.821971,-0.22505,2.329,2.48003
-0.814412,-0.22505,2.329,2.47753
-0.806852,-0.22505,2.329,2.47506
-0.799293,-0.22505,2.329,2.4726
-0.791734,-0.22505,2.329,2.47017
-0.784174,-0.22505,2.329,2.46776
-0.776615,-0.22505,2.329,2.46536
-0.769056,-0.22505,2.329,2.46299
-0.761496,-0.22505,2.329,2.46064
-0.753937,-0.22505,2.329,2.45831
-0.751505,-0.226596,2.345,2.47288
-0.743894,-0.226596,2.345,2.47058
-0.736283,-0.226596,2.345,2.4683
-0.733643,-0.228142,2.361,2.48286
-0.72598,-0.228142,2.361,2.48061
-0.718317,-0.228142,2.361,2.47838
-0.710653,-0.228142,2.361,2.47617
-0.70299,-0.228142,2.361,2.47398
-0.700039,-0.229688,2.377,2.48856
-0.692324,-0.229688,2.377,2.4864
-0.684609,-0.229688,2.377,2.48427
-0.681735,-0.23133,2.394,2.4999
-0.673964,-0.23133,2.394,2.49779
-0.666194,-0.23133,2.394,2.49571
-0.658424,-0.23133,2.394,2.49365
-0.650653,-0.23133,2.394,2.49161
-0.642883,-0.23133,2.394,2.48959
-0.639623,-0.232973,2.411,2.50526
-0.631797,-0.232973,2.411,2.50327
-0.623972,-0.232973,2.411,2.50131
-0.616146,-0.232973,2.411,2.49937
-0.608321,-0.232973,2.411,2.49745
-0.600495,-0.232973,2.411,2.49555
-0.59267,-0.232973,2.411,2.49368
-0.584844,-0.232973,2.411,2.49183
-0.577019,-0.232973,2.411,2.49001
-0.569193,-0.232973,2.411,2.48821
-0.565326,-0.234616,2.428,2.50396
-0.557445,-0.234616,2.428,2.50219
-0.549564,-0.234616,2.428,2.50045
-0.541684,-0.234616,2.428,2.49873
-0.533803,-0.234616,2.428,2.49703
-0.525922,-0.234616,2.428,2.49536
-0.518042,-0.234616,2.428,2.49371
-0.513733,-0.236259,2.445,2.50954
-0.505797,-0.236259,2.445,2.50792
-0.501526,-0.237998,2.463,2.52479
-0.493532,-0.237998,2.463,2.52321
-0.485538,-0.237998,2.463,2.52166
-0.477544,-0.237998,2.463,2.52013
-0.469549,-0.237998,2.463,2.51863
-0.461555,-0.237998,2.463,2.51715
-0.453561,-0.237998,2.463,2.5157
-0.445566,-0.237998,2.463,2.51427
-0.437572,-0.237998,2.463,2.51286
-0.429578,-0.237998,2.463,2.51148
-0.421584,-0.237998,2.463,2.51013
-0.413589,-0.237998,2.463,2.5088
-0.405595,-0.237998,2.463,2.50749
-0.397601,-0.237998,2.463,2.50621
-0.389606,-0.237998,2.463,2.50496
-0.381612,-0.237998,2.463,2.50373
-0.370887,-0.236259,2.445,2.48423
-0.362952,-0.236259,2.445,2.48306
-0.355016,-0.236259,2.445,2.48191
-0.34708,-0.236259,2.445,2.48079
-0.339144,-0.236259,2.445,2.47969
-0.331208,-0.236259,2.445,2.47862
-0.323272,-0.236259,2.445,2.47757
-0.315336,-0.236259,2.445,2.47655
-0.3074,-0.236259,2.445,2.47555
-0.299465,-0.236259,2.445,2.47458
-0.291529,-0.236259,2.445,2.47363
-0.283593,-0.236259,2.445,2.4727
-0.275657,-0.236259,2.445,2.47181
-0.267721,-0.236259,2.445,2.47093
-0.261698,-0.237998,2.463,2.48827
-0.253704,-0.237998,2.463,2.48744
-0.245709,-0.237998,2.463,2.48664
-0.237715,-0.237998,2.463,2.48586
-0.229721,-0.237998,2.463,2.48511
-0.221726,-0.237998,2.463,2.48439
-0.215294,-0.239737,2.481,2.50184
-0.207241,-0.239737,2.481,2.50116
-0.199189,-0.239737,2.481,2.5005
-0.191136,-0.239737,2.481,2.49987
-0.183083,-0.239737,2.481,2.49927
-0.175031,-0.239737,2.481,2.49869
-0.166978,-0.239737,2.481,2.49814
-0.158925,-0.239737,2.481,2.49762
-0.150872,-0.239737,2.481,2.49712
-0.14282,-0.239737,2.481,2.49664
-0.135745,-0.241477,2.499,2.51431
-0.127634,-0.241477,2.499,2.51388
-0.119523,-0.241477,2.499,2.51348
-0.111411,-0.241477,2.499,2.51311
-0.1033,-0.241477,2.499,2.51276
-0.0951891,-0.241477,2.499,2.51244
-0.087078,-0.241477,2.499,2.51215
-0.0789668,-0.241477,2.499,2.51188
-0.0713661,-0.243216,2.517,2.52973
-0.0631965,-0.243216,2.517,2.52951
-0.055027,-0.243216,2.517,2.52932
-0.0468574,-0.243216,2.517,2.52916
-0.0386878,-0.243216,2.517,2.52902
-0.0305183,-0.243216,2.517,2.52891
-0.0225174,-0.245052,2.536,2.54791
-0.0143932,-0.246888,2.555,2.56694
-0.00610034,-0.246888,2.555,2.56691
0.00219255,-0.246888,2.555,2.5669
0.0104854,-0.246888,2.555,2.56692
0.0187783,-0.246888,2.555,2.56697
0.0268699,-0.245052,2.536,2.54795
0.0351011,-0.245052,2.536,2.54805
0.0433324,-0.245052,2.536,2.54818
0.0515636,-0.245052,2.536,2.54833
0.0593468,-0.243216,2.517,2.52942
0.0675164,-0.243216,2.517,2.52962
0.075686,-0.243216,2.517,2.52986
0.0832558,-0.241477,2.499,2.51202
0.091367,-0.241477,2.499,2.5123
0.0994781,-0.241477,2.499,2.51261
0.106814,-0.239737,2.481,2.49484
0.114867,-0.239737,2.481,2.4952
0.12292,-0.239737,2.481,2.49559
0.130972,-0.239737,2.481,2.49599
0.139025,-0.239737,2.481,2.49643
0.147078,-0.239737,2.481,2.49689
0.155131,-0.239737,2.481,2.49738
0.164367,-0.241477,2.499,2.51601
0.172478,-0.241477,2.499,2.51656
0.180589,-0.241477,2.499,2.51713
0.19006,-0.243216,2.517,2.53586
0.198229,-0.243216,2.517,2.53648
0.206399,-0.243216,2.517,2.53713
0.213034,-0.241477,2.499,2.51966
0.221145,-0.241477,2.499,2.52036
0.229256,-0.241477,2.499,2.52109
0.237367,-0.241477,2.499,2.52184
0.245479,-0.241477,2.499,2.52261
0.25359,-0.241477,2.499,2.52341
0.261701,-0.241477,2.499,2.52424
0.267868,-0.239737,2.481,2.50691
0.275921,-0.239737,2.481,2.50778
0.283974,-0.239737,2.481,2.50868
0.292027,-0.239737,2.481,2.5096
0.302256,-0.241477,2.499,2.52877
0.310368,-0.241477,2.499,2.52975
0.316185,-0.239737,2.481,2.51253
0.324237,-0.239737,2.481,2.51356
0.33229,-0.239737,2.481,2.51461
0.340343,-0.239737,2.481,2.51568
0.348396,-0.239737,2.481,2.51679
0.356448,-0.239737,2.481,2.51791
0.364501,-0.239737,2.481,2.51907
0.372554,-0.239737,2.481,2.52024
0.380606,-0.239737,2.481,2.52145
0.388659,-0.239737,2.481,2.52268
0.396712,-0.239737,2.481,2.52393
0.407701,-0.241477,2.499,2.54353
0.415812,-0.241477,2.499,2.54484
0.423923,-0.241477,2.499,2.54618
0.432035,-0.241477,2.499,2.54754
0.440146,-0.241477,2.499,2.54893
0.448257,-0.241477,2.499,2.55034
0.456368,-0.241477,2.499,2.55178
0.464479,-0.241477,2.499,2.55324
0.47259,-0.241477,2.499,2.55473
0.480701,-0.241477,2.499,2.55624
0.488812,-0.241477,2.499,2.55778
0.496924,-0.241477,2.499,2.55934
0.505035,-0.241477,2.499,2.56093
0.513146,-0.241477,2.499,2.56254
0.521257,-0.241477,2.499,2.56418
0.529368,-0.241477,2.499,2.56584
0.537479,-0.241477,2.499,2.56753
0.54559,-0.241477,2.499,2.56924
0.553702,-0.241477,2.499,2.57097
0.557766,-0.239737,2.481,2.5542
0.565819,-0.239737,2.481,2.55597
0.573871,-0.239737,2.481,2.55777
0.581924,-0.239737,2.481,2.55958
0.589977,-0.239737,2.481,2.56143
0.59803,-0.239737,2.481,2.56329
0.606082,-0.239737,2.481,2.56518
0.614135,-0.239737,2.481,2.5671
0.622188,-0.239737,2.481,2.56904
0.63024,-0.239737,2.481,2.571
0.638293,-0.239737,2.481,2.57299
0.646346,-0.239737,2.481,2.575
0.654399,-0.239737,2.481,2.57703
0.662451,-0.239737,2.481,2.57908
0.675369,-0.241477,2.499,2.59989
0.68348,-0.241477,2.499,2.60201
0.691591,-0.241477,2.499,2.60415
0.699702,-0.241477,2.499,2.60632
0.707813,-0.241477,2.499,2.60851
0.715924,-0.241477,2.499,2.61072
0.724035,-0.241477,2.499,2.61296
0.732147,-0.241477,2.499,2.61522
0.740258,-0.241477,2.499,2.6175
0.748369,-0.241477,2.499,2.6198
0.761929,-0.243216,2.517,2.64102
0.770098,-0.243216,2.517,2.64339
0.778268,-0.243216,2.517,2.64578
0.786437,-0.243216,2.517,2.64819
0.794607,-0.243216,2.517,2.65063
0.802777,-0.243216,2.517,2.65309
0.810946,-0.243216,2.517,2.65557
0.819116,-0.243216,2.517,2.65808
0.827285,-0.243216,2.517,2.66061
0.835455,-0.243216,2.517,2.66316
0.843624,-0.243216,2.517,2.66574
0.851794,-0.243216,2.517,2.66833
0.859963,-0.243216,2.517,2.67095
0.868133,-0.243216,2.517,2.67359
0.870036,-0.241477,2.499,2.65712
0.878147,-0.241477,2.499,2.65978
0.886258,-0.241477,2.499,2.66247
0.894369,-0.241477,2.499,2.66518
0.90248,-0.241477,2.499,2.66792
0.910591,-0.241477,2.499,2.67067
0.912085,-0.239737,2.481,2.65419
0.913462,-0.237998,2.463,2.63769
0.921457,-0.237998,2.463,2.64047
0.922658,-0.236259,2.445,2.62396
0.930594,-0.236259,2.445,2.62676
0.932004,-0.234616,2.428,2.61129
0.939885,-0.234616,2.428,2.61412
0.947766,-0.234616,2.428,2.61696
0.948955,-0.232973,2.411,2.60148
0.956781,-0.232973,2.411,2.60435
0.964606,-0.232973,2.411,2.60723
0.965575,-0.23133,2.394,2.59173
0.973346,-0.23133,2.394,2.59464
0.981116,-0.23133,2.394,2.59756
nan,nan,nan,NaN
nan,nan,nan,NaN
nan,nan,nan,NaN
nan,nan,nan,NaN
nan,nan,nan,NaN
nan,nan,nan,NaN
nan,nan,nan,NaN
nan,nan,nan,NaN
nan,nan,nan,NaN
nan,nan,nan,NaN
nan,nan,nan,NaN
nan,nan,nan,NaN
nan,nan,nan,NaN
nan,nan,nan,NaN
nan,nan,nan,NaN
1.77591,-0.371636,3.846,4.25249
1.78839,-0.371636,3.846,4.25772
1.80088,-0.371636,3.846,4.26298
1.8341,-0.375888,3.89,4.3171
1.84673,-0.375888,3.89,4.32248
1.85936,-0.375888,3.89,4.32789
1.87198,-0.375888,3.89,4.33333
1.88461,-0.375888,3.89,4.3388
1.89723,-0.375888,3.89,4.34429
1.90986,-0.375888,3.89,4.34982
1.94473,-0.380236,3.935,4.40577
1.9575,-0.380236,3.935,4.41142
1.97027,-0.380236,3.935,4.4171
nan,nan,nan,NaN
nan,nan,nan,NaN
nan,nan,nan,NaN
nan,nan,nan,NaN
nan,nan,nan,NaN
nan,nan,nan,NaN
nan,nan,nan,NaN
nan,nan,nan,NaN
nan,nan,nan,NaN
2.02815,-0.367578,3.804,4.32654
2.01796,-0.363519,3.762,4.2845
2.03017,-0.363519,3.762,4.29027
2.02013,-0.359557,3.721,4.24924
2.0322,-0.359557,3.721,4.25499
2.04428,-0.359557,3.721,4.26078
2.03425,-0.355692,3.681,4.22072
2.02452,-0.351924,3.642,4.18171
2.03634,-0.351924,3.642,4.18745
2.02679,-0.348252,3.604,4.14946
2.017,-0.34458,3.566,4.11137
2.02857,-0.34458,3.566,4.11706
2.01898,-0.341005,3.529,4.08
2.00972,-0.337526,3.493,4.044
2.02106,-0.337526,3.493,4.04965
2.01203,-0.334144,3.458,4.01468
2.02325,-0.334144,3.458,4.02032
1.99388,-0.327477,3.389,3.94565
2.00488,-0.327477,3.389,3.95122
1.99625,-0.324288,3.356,3.91828
1.98801,-0.321196,3.324,3.88643
1.99879,-0.321196,3.324,3.89196
1.95275,-0.312112,3.23,3.78729
1.9444,-0.309117,3.199,3.75631
1.95478,-0.309117,3.199,3.76169
1.96516,-0.309117,3.199,3.7671
1.92182,-0.30071,3.112,3.66993
1.93192,-0.30071,3.112,3.67523
1.92455,-0.298005,3.084,3.64743
1.90068,-0.292787,3.03,3.58876
1.91052,-0.292787,3.03,3.59398
1.90324,-0.290178,3.003,3.56715
1.87986,-0.285153,2.951,3.5105
1.88944,-0.285153,2.951,3.51564
1.88293,-0.282737,2.926,3.49097
1.86074,-0.278002,2.877,3.43755
1.85447,-0.275683,2.853,3.4139
1.86373,-0.275683,2.853,3.41894
1.84214,-0.271142,2.806,3.36759
1.82156,-0.266793,2.761,3.31849
1.83052,-0.266793,2.761,3.32342
1.81017,-0.262542,2.717,3.27532
1.79087,-0.258483,2.675,3.2295
1.79955,-0.258483,2.675,3.23432
1.79404,-0.256454,2.654,3.21373
1.78839,-0.254425,2.633,3.19308
-2.12074,-0.285476,3.057,3.73153
-2.11082,-0.285476,3.057,3.7259
-2.1009,-0.285476,3.057,3.72028
-2.09097,-0.285476,3.057,3.71469
-2.08105,-0.285476,3.057,3.70911
-2.08942,-0.287998,3.084,3.73627
-2.06121,-0.285476,3.057,3.69802
-2.05129,-0.285476,3.057,3.69249
-2.05939,-0.287998,3.084,3.71956
-2.04938,-0.287998,3.084,3.71402
-2.05789,-0.290612,3.112,3.74218
-2.04779,-0.290612,3.112,3.73663
-2.03769,-0.290612,3.112,3.73111
-2.02759,-0.290612,3.112,3.7256
-2.03629,-0.29332,3.141,3.75478
-2.0448,-0.296029,3.17,3.78388
-2.03451,-0.296029,3.17,3.77833
-2.02422,-0.296029,3.17,3.7728
-2.01393,-0.296029,3.17,3.76729
-2.00364,-0.296029,3.17,3.7618
-1.99335,-0.296029,3.17,3.75633
-1.98306,-0.296029,3.17,3.75088
-1.97277,-0.296029,3.17,3.74545
-1.96248,-0.296029,3.17,3.74004
-1.9522,-0.296029,3.17,3.73465
-1.94191,-0.296029,3.17,3.72928
-1.91395,-0.29332,3.141,3.68987
-1.88618,-0.290612,3.112,3.65057
-1.87607,-0.290612,3.112,3.64536
-1.86597,-0.290612,3.112,3.64017
-1.85587,-0.290612,3.112,3.63501
nan,nan,nan,NaN
nan,nan,nan,NaN
nan,nan,nan,NaN
nan,nan,nan,NaN
nan,nan,nan,NaN
nan,nan,nan,NaN
nan,nan,nan,NaN
nan,nan,nan,NaN
nan,nan,nan,NaN
nan,nan,nan,NaN
nan,nan,nan,NaN
nan,nan,nan,NaN
nan,nan,nan,NaN
nan,nan,nan,NaN
nan,nan,nan,NaN
nan,nan,nan,NaN
nan,nan,nan,NaN
nan,nan,nan,NaN
nan,nan,nan,NaN
nan,nan,nan,NaN
nan,nan,nan,NaN
nan,nan,nan,NaN
nan,nan,nan,NaN
nan,nan,nan,NaN
nan,nan,nan,NaN
nan,nan,nan,NaN
nan,nan,nan,NaN
nan,nan,nan,NaN
nan,nan,nan,NaN
nan,nan,nan,NaN
nan,nan,nan,NaN
nan,nan,nan,NaN
-1.19622,-0.228325,2.445,2.7315
-1.18828,-0.228325,2.445,2.72803
-1.18035,-0.228325,2.445,2.72459
-1.16426,-0.226737,2.428,2.70224
-1.15638,-0.226737,2.428,2.69885
-1.1485,-0.226737,2.428,2.69548
-1.13263,-0.22515,2.411,2.67329
-1.1248,-0.22515,2.411,2.66998
-1.11698,-0.22515,2.411,2.66669
-1.10133,-0.223562,2.394,2.64465
-1.09356,-0.223562,2.394,2.64142
-1.08579,-0.223562,2.394,2.63821
-1.07802,-0.223562,2.394,2.63502
-1.07025,-0.223562,2.394,2.63185
-1.06248,-0.223562,2.394,2.6287
-1.04722,-0.221975,2.377,2.60693
-1.03951,-0.221975,2.377,2.60384
-1.03179,-0.221975,2.377,2.60077
-1.01718,-0.220481,2.361,2.58023
-1.00952,-0.220481,2.361,2.57722
-1.00186,-0.220481,2.361,2.57423
-0.994193,-0.220481,2.361,2.57125
-0.986529,-0.220481,2.361,2.5683
-0.978866,-0.220481,2.361,2.56537
-0.964621,-0.218986,2.345,2.54509
-0.95701,-0.218986,2.345,2.54221
-0.949399,-0.218986,2.345,2.53936
-0.941787,-0.218986,2.345,2.53652
-0.927802,-0.217492,2.329,2.51642
-0.920243,-0.217492,2.329,2.51364
-0.912683,-0.217492,2.329,2.51088
-0.905124,-0.217492,2.329,2.50815
-0.897565,-0.217492,2.329,2.50543
-0.890005,-0.217492,2.329,2.50273
-0.882446,-0.217492,2.329,2.50005
-0.874887,-0.217492,2.329,2.49739
-0.867327,-0.217492,2.329,2.49475
-0.859768,-0.217492,2.329,2.49214
-0.852209,-0.217492,2.329,2.48954
-0.844649,-0.217492,2.329,2.48696
-0.83709,-0.217492,2.329,2.4844
-0.829531,-0.217492,2.329,2.48187
-0.821971,-0.217492,2.329,2.47935
-0.814412,-0.217492,2.329,2.47686
-0.806852,-0.217492,2.329,2.47438
-0.799293,-0.217492,2.329,2.47193
-0.797173,-0.218986,2.345,2.48646
-0.789562,-0.218986,2.345,2.48403
-0.78195,-0.218986,2.345,2.48162
-0.774339,-0.218986,2.345,2.47923
-0.766728,-0.218986,2.345,2.47686
-0.759116,-0.218986,2.345,2.47452
-0.751505,-0.218986,2.345,2.47219
-0.748969,-0.220481,2.361,2.48674
-0.741306,-0.220481,2.361,2.48445
-0.733643,-0.220481,2.361,2.48217
-0.72598,-0.220481,2.361,2.47992
-0.723184,-0.221975,2.377,2.49447
-0.715469,-0.221975,2.377,2.49225
-0.707754,-0.221975,2.377,2.49004
-0.700039,-0.221975,2.377,2.48786
-0.692324,-0.221975,2.377,2.4857
-0.689505,-0.223562,2.394,2.50133
-0.681735,-0.223562,2.394,2.4992
-0.673964,-0.223562,2.394,2.49709
-0.666194,-0.223562,2.394,2.495
-0.658424,-0.223562,2.394,2.49294
-0.650653,-0.223562,2.394,2.4909
-0.642883,-0.223562,2.394,2.48888
-0.639623,-0.22515,2.411,2.50454
-0.631797,-0.22515,2.411,2.50255
-0.623972,-0.22515,2.411,2.50059
-0.616146,-0.22515,2.411,2.49865
-0.608321,-0.22515,2.411,2.49673
-0.600495,-0.22515,2.411,2.49484
-0.59267,-0.22515,2.411,2.49296
-0.584844,-0.22515,2.411,2.49112
-0.577019,-0.22515,2.411,2.48929
-0.569193,-0.22515,2.411,2.48749
-0.565326,-0.226737,2.428,2.50324
-0.561348,-0.228325,2.445,2.51898
-0.553412,-0.228325,2.445,2.51723
-0.545476,-0.228325,2.445,2.51549
-0.53754,-0.228325,2.445,2.51378
-0.529605,-0.228325,2.445,2.5121
-0.521669,-0.228325,2.445,2.51044
-0.513733,-0.228325,2.445,2.5088
-0.505797,-0.228325,2.445,2.50719
-0.501526,-0.230006,2.463,2.52404
-0.493532,-0.230006,2.463,2.52247
-0.485538,-0.230006,2.463,2.52092
-0.477544,-0.230006,2.463,2.51939
-0.469549,-0.230006,2.463,2.51789
-0.461555,-0.230006,2.463,2.51641
-0.453561,-0.230006,2.463,2.51495
-0.448823,-0.231687,2.481,2.53189
-0.44077,-0.231687,2.481,2.53048
-0.432717,-0.231687,2.481,2.52909
-0.424665,-0.231687,2.481,2.52772
-0.413589,-0.230006,2.463,2.50805
-0.405595,-0.230006,2.463,2.50675
-0.397601,-0.230006,2.463,2.50547
-0.389606,-0.230006,2.463,2.50421
-0.381612,-0.230006,2.463,2.50298
-0.373618,-0.230006,2.463,2.50177
-0.365624,-0.230006,2.463,2.50059
-0.357629,-0.230006,2.463,2.49943
-0.349635,-0.230006,2.463,2.4983
-0.341641,-0.230006,2.463,2.4972
-0.333646,-0.230006,2.463,2.49612
-0.325652,-0.230006,2.463,2.49506
-0.317658,-0.230006,2.463,2.49403
-0.309664,-0.230006,2.463,2.49302
-0.301669,-0.230006,2.463,2.49204
-0.293675,-0.230006,2.463,2.49109
-0.285681,-0.230006,2.463,2.49016
-0.277686,-0.230006,2.463,2.48925
-0.269692,-0.230006,2.463,2.48837
-0.261698,-0.230006,2.463,2.48752
-0.255558,-0.231687,2.481,2.50487
-0.247505,-0.231687,2.481,2.50406
-0.239452,-0.231687,2.481,2.50327
-0.2314,-0.231687,2.481,2.50252
-0.223347,-0.231687,2.481,2.50178
-0.215294,-0.231687,2.481,2.50108
-0.207241,-0.231687,2.481,2.5004
-0.199189,-0.231687,2.481,2.49974
-0.191136,-0.231687,2.481,2.49911
-0.183083,-0.231687,2.481,2.49851
-0.1763,-0.233368,2.499,2.51606
-0.168189,-0.233368,2.499,2.5155
-0.160078,-0.233368,2.499,2.51497
-0.151967,-0.233368,2.499,2.51447
-0.143856,-0.233368,2.499,2.51399
-0.135745,-0.233368,2.499,2.51354
-0.127634,-0.233368,2.499,2.51312
-0.119523,-0.233368,2.499,2.51272
-0.111411,-0.233368,2.499,2.51234
-0.104044,-0.235049,2.517,2.53009
-0.0958747,-0.235049,2.517,2.52977
-0.0877052,-0.235049,2.517,2.52947
-0.0795356,-0.235049,2.517,2.5292
-0.0713661,-0.235049,2.517,2.52896
-0.0631965,-0.235049,2.517,2.52874
-0.055027,-0.235049,2.517,2.52855
-0.0468574,-0.235049,2.517,2.52839
-0.0386878,-0.235049,2.517,2.52825
-0.0305183,-0.235049,2.517,2.52814
-0.0225174,-0.236823,2.536,2.54713
-0.0143932,-0.238597,2.555,2.56616
-0.00610034,-0.238597,2.555,2.56612
0.00219255,-0.238597,2.555,2.56612
0.0104854,-0.238597,2.555,2.56614
0.0187783,-0.238597,2.555,2.56619
0.0268699,-0.236823,2.536,2.54718
0.0351011,-0.236823,2.536,2.54728
0.0433324,-0.236823,2.536,2.5474
0.0515636,-0.236823,2.536,2.54756
0.0593468,-0.235049,2.517,2.52865
0.0675164,-0.235049,2.517,2.52885
0.075686,-0.235049,2.517,2.52908
0.0832558,-0.233368,2.499,2.51125
0.091367,-0.233368,2.499,2.51154
0.0994781,-0.233368,2.499,2.51184
0.107589,-0.233368,2.499,2.51218
